ply
format ascii 1.0
element vertex 1176
property float x
property float y
property float z
property uchar red
property uchar green
property uchar blue
property uchar alpha
end_header
296.83 122.576 -272.324 210 210 210 255
296.83 122.576 -268.303 210 210 210 255
296.83 122.576 -264.286 210 210 210 255
296.83 122.576 -260.27 210 210 210 255
296.83 122.576 -256.258 210 210 210 255
296.83 122.576 -252.249 210 210 210 255
296.83 122.576 -248.244 210 210 210 255
296.83 122.576 -244.242 210 210 210 255
296.83 122.576 -240.243 210 210 210 255
296.83 122.576 -236.249 210 210 210 255
296.83 122.576 -232.259 210 210 210 255
296.83 122.576 -228.273 210 210 210 255
296.83 122.576 -224.292 210 210 210 255
296.83 122.576 -220.316 210 210 210 255
296.83 122.576 -216.345 210 210 210 255
296.83 122.576 -212.379 210 210 210 255
296.83 122.576 -208.419 210 210 210 255
296.83 122.576 -204.465 210 210 210 255
296.83 122.576 -200.516 210 210 210 255
296.83 122.576 -196.574 210 210 210 255
296.83 122.576 -192.638 210 210 210 255
296.83 122.576 -188.709 210 210 210 255
296.83 122.576 -184.787 210 210 210 255
296.83 122.576 -180.872 210 210 210 255
296.83 122.576 -176.964 210 210 210 255
296.83 122.576 -173.064 210 210 210 255
296.83 122.576 -169.172 210 210 210 255
296.83 122.576 -165.288 210 210 210 255
296.83 122.576 -161.412 210 210 210 255
296.83 122.576 -157.545 210 210 210 255
296.83 122.576 -153.687 210 210 210 255
296.83 122.576 -149.838 210 210 210 255
296.83 122.576 -145.999 210 210 210 255
296.83 122.576 -142.169 210 210 210 255
296.83 122.576 -138.349 210 210 210 255
296.83 122.576 -134.539 210 210 210 255
296.83 122.576 -130.739 210 210 210 255
296.83 122.576 -126.95 210 210 210 255
296.83 122.576 -123.173 210 210 210 255
296.83 122.576 -119.406 210 210 210 255
296.83 122.576 -115.65 210 210 210 255
296.83 122.576 -111.907 210 210 210 255
296.83 122.576 -108.175 210 210 210 255
296.83 122.576 -104.456 210 210 210 255
296.83 122.576 -100.75 210 210 210 255
296.83 122.576 -97.0556 210 210 210 255
296.83 122.576 -93.3748 210 210 210 255
296.83 122.576 -89.7075 210 210 210 255
296.83 122.576 -86.0536 210 210 210 255
296.83 122.576 -82.4138 210 210 210 255
296.83 122.576 -78.7882 210 210 210 255
296.83 122.576 -75.1771 210 210 210 255
296.83 122.576 -71.5807 210 210 210 255
296.83 122.576 -67.9995 210 210 210 255
296.83 122.576 -64.4336 210 210 210 255
296.83 122.576 -60.8834 210 210 210 255
296.83 122.576 -57.3492 210 210 210 255
296.83 122.576 -53.8312 210 210 210 255
296.83 122.576 -50.3297 210 210 210 255
296.83 122.576 -46.845 210 210 210 255
296.83 122.576 -43.3776 210 210 210 255
296.83 122.576 -39.9276 210 210 210 255
296.83 122.576 -36.4953 210 210 210 255
296.83 122.576 -33.0811 210 210 210 255
296.83 122.576 -29.6852 210 210 210 255
296.83 122.576 -26.3079 210 210 210 255
296.83 122.576 -22.9497 210 210 210 255
296.83 122.576 -19.6108 210 210 210 255
296.83 122.576 -16.2915 210 210 210 255
296.83 122.576 -12.9921 210 210 210 255
296.83 122.576 -9.71295 210 210 210 255
296.83 122.576 -6.45422 210 210 210 255
296.83 122.576 -3.21661 210 210 210 255
296.83 122.576 0 210 210 210 255
295.989 124.958 -748.167 210 210 210 255
295.989 124.958 -744.882 210 210 210 255
295.989 124.958 -741.588 210 210 210 255
295.989 124.958 -738.284 210 210 210 255
295.989 124.958 -734.97 210 210 210 255
295.989 124.958 -731.647 210 210 210 255
295.989 124.958 -728.314 210 210 210 255
295.989 124.958 -724.971 210 210 210 255
295.989 124.958 -721.619 210 210 210 255
295.989 124.958 -718.257 210 210 210 255
295.989 124.958 -714.885 210 210 210 255
295.989 124.958 -711.504 210 210 210 255
295.989 124.958 -708.113 210 210 210 255
295.989 124.958 -704.712 210 210 210 255
295.989 124.958 -701.301 210 210 210 255
295.989 124.958 -697.881 210 210 210 255
295.989 124.958 -694.451 210 210 210 255
295.989 124.958 -691.012 210 210 210 255
295.989 124.958 -687.563 210 210 210 255
295.989 124.958 -684.104 210 210 210 255
295.989 124.958 -680.636 210 210 210 255
295.989 124.958 -677.158 210 210 210 255
295.989 124.958 -673.67 210 210 210 255
295.989 124.958 -670.173 210 210 210 255
295.989 124.958 -666.667 210 210 210 255
295.989 124.958 -663.151 210 210 210 255
295.989 124.958 -659.625 210 210 210 255
295.989 124.958 -656.09 210 210 210 255
295.989 124.958 -652.546 210 210 210 255
295.989 124.958 -648.992 210 210 210 255
295.989 124.958 -645.429 210 210 210 255
295.989 124.958 -641.857 210 210 210 255
295.989 124.958 -638.276 210 210 210 255
295.989 124.958 -634.685 210 210 210 255
295.989 124.958 -631.085 210 210 210 255
295.989 124.958 -627.476 210 210 210 255
295.989 124.958 -623.858 210 210 210 255
295.989 124.958 -620.231 210 210 210 255
295.989 124.958 -616.595 210 210 210 255
295.989 124.958 -612.95 210 210 210 255
295.989 124.958 -609.296 210 210 210 255
295.989 124.958 -605.633 210 210 210 255
295.989 124.958 -601.962 210 210 210 255
295.989 124.958 -598.282 210 210 210 255
295.989 124.958 -594.593 210 210 210 255
295.989 124.958 -590.896 210 210 210 255
295.989 124.958 -587.19 210 210 210 255
295.989 124.958 -583.476 210 210 210 255
295.989 124.958 -579.753 210 210 210 255
295.989 124.958 -576.022 210 210 210 255
295.989 124.958 -572.283 210 210 210 255
295.989 124.958 -568.535 210 210 210 255
295.989 124.958 -564.78 210 210 210 255
295.989 124.958 -561.016 210 210 210 255
295.989 124.958 -557.245 210 210 210 255
295.989 124.958 -553.466 210 210 210 255
295.989 124.958 -549.679 210 210 210 255
295.989 124.958 -545.884 210 210 210 255
295.989 124.958 -542.081 210 210 210 255
295.989 124.958 -538.271 210 210 210 255
295.989 124.958 -534.454 210 210 210 255
295.989 124.958 -530.629 210 210 210 255
295.989 124.958 -526.797 210 210 210 255
295.989 124.958 -522.958 210 210 210 255
295.989 124.958 -519.112 210 210 210 255
295.989 124.958 -515.259 210 210 210 255
295.989 124.958 -511.399 210 210 210 255
295.989 124.958 -507.532 210 210 210 255
295.989 124.958 -503.658 210 210 210 255
295.989 124.958 -499.778 210 210 210 255
295.989 124.958 -495.891 210 210 210 255
295.989 124.958 -491.999 210 210 210 255
295.989 124.958 -488.099 210 210 210 255
295.989 124.958 -484.194 210 210 210 255
295.989 124.958 -480.283 210 210 210 255
295.989 124.958 -476.365 210 210 210 255
295.989 124.958 -472.442 210 210 210 255
295.989 124.958 -468.514 210 210 210 255
295.989 124.958 -464.579 210 210 210 255
295.989 124.958 -460.64 210 210 210 255
295.989 124.958 -456.695 210 210 210 255
295.989 124.958 -452.744 210 210 210 255
295.989 124.958 -448.789 210 210 210 255
295.989 124.958 -444.829 210 210 210 255
295.989 124.958 -440.864 210 210 210 255
295.989 124.958 -436.894 210 210 210 255
295.989 124.958 -432.92 210 210 210 255
295.989 124.958 -428.941 210 210 210 255
295.989 124.958 -424.958 210 210 210 255
295.989 124.958 -420.971 210 210 210 255
295.989 124.958 -416.98 210 210 210 255
295.989 124.958 -412.985 210 210 210 255
295.989 124.958 -408.987 210 210 210 255
295.989 124.958 -404.984 210 210 210 255
295.989 124.958 -400.979 210 210 210 255
295.989 124.958 -396.97 210 210 210 255
295.989 124.958 -392.958 210 210 210 255
295.989 124.958 -388.943 210 210 210 255
295.989 124.958 -384.925 210 210 210 255
295.989 124.958 -380.905 210 210 210 255
295.989 124.958 -376.882 210 210 210 255
295.989 124.958 -372.857 210 210 210 255
295.989 124.958 -368.83 210 210 210 255
295.989 124.958 -364.8 210 210 210 255
295.989 124.958 -360.769 210 210 210 255
295.989 124.958 -356.736 210 210 210 255
295.989 124.958 -352.702 210 210 210 255
295.989 124.958 -348.666 210 210 210 255
295.989 124.958 -344.629 210 210 210 255
295.989 124.958 -340.591 210 210 210 255
295.989 124.958 -336.553 210 210 210 255
295.989 124.958 -332.513 210 210 210 255
295.989 124.958 -328.473 210 210 210 255
295.989 124.958 -324.433 210 210 210 255
295.989 124.958 -320.393 210 210 210 255
295.989 124.958 -316.353 210 210 210 255
295.989 124.958 -312.313 210 210 210 255
295.989 124.958 -308.274 210 210 210 255
295.989 124.958 -304.235 210 210 210 255
295.989 124.958 -300.197 210 210 210 255
295.989 124.958 -296.16 210 210 210 255
295.989 124.958 -292.125 210 210 210 255
295.989 124.958 -288.091 210 210 210 255
295.989 124.958 -284.058 210 210 210 255
295.989 124.958 -280.027 210 210 210 255
295.989 124.958 -275.999 210 210 210 255
295.989 124.958 -271.972 210 210 210 255
295.989 124.958 -267.948 210 210 210 255
295.989 124.958 -263.926 210 210 210 255
295.989 124.958 -259.908 210 210 210 255
295.989 124.958 -255.892 210 210 210 255
295.989 124.958 -251.88 210 210 210 255
295.989 124.958 -247.871 210 210 210 255
295.989 124.958 -243.866 210 210 210 255
295.989 124.958 -239.865 210 210 210 255
295.989 124.958 -235.868 210 210 210 255
295.989 124.958 -231.875 210 210 210 255
295.989 124.958 -227.887 210 210 210 255
295.989 124.958 -223.904 210 210 210 255
295.989 124.958 -219.925 210 210 210 255
295.989 124.958 -215.952 210 210 210 255
295.989 124.958 -211.985 210 210 210 255
295.989 124.958 -208.023 210 210 210 255
295.989 124.958 -204.067 210 210 210 255
295.989 124.958 -200.117 210 210 210 255
295.989 124.958 -196.174 210 210 210 255
295.989 124.958 -192.237 210 210 210 255
295.989 124.958 -188.307 210 210 210 255
295.989 124.958 -184.384 210 210 210 255
295.989 124.958 -180.469 210 210 210 255
295.989 124.958 -176.562 210 210 210 255
295.989 124.958 -172.662 210 210 210 255
295.989 124.958 -168.77 210 210 210 255
295.989 124.958 -164.887 210 210 210 255
295.989 124.958 -161.012 210 210 210 255
295.989 124.958 -157.146 210 210 210 255
295.989 124.958 -153.29 210 210 210 255
295.989 124.958 -149.442 210 210 210 255
295.989 124.958 -145.605 210 210 210 255
295.989 124.958 -141.777 210 210 210 255
295.989 124.958 -137.959 210 210 210 255
295.989 124.958 -134.152 210 210 210 255
295.989 124.958 -130.356 210 210 210 255
295.989 124.958 -126.57 210 210 210 255
295.989 124.958 -122.796 210 210 210 255
295.989 124.958 -119.033 210 210 210 255
295.989 124.958 -115.282 210 210 210 255
295.989 124.958 -111.543 210 210 210 255
295.989 124.958 -107.817 210 210 210 255
295.989 124.958 -104.103 210 210 210 255
295.989 124.958 -100.402 210 210 210 255
295.989 124.958 -96.7142 210 210 210 255
295.989 124.958 -93.0396 210 210 210 255
295.989 124.958 -89.379 210 210 210 255
295.989 124.958 -85.7324 210 210 210 255
295.989 124.958 -82.1 210 210 210 255
295.989 124.958 -78.4823 210 210 210 255
295.989 124.958 -74.8795 210 210 210 255
295.989 124.958 -71.2919 210 210 210 255
295.989 124.958 -67.7197 210 210 210 255
295.989 124.958 -64.1633 210 210 210 255
295.989 124.958 -60.623 210 210 210 255
295.989 124.958 -57.0991 210 210 210 255
295.989 124.958 -53.5919 210 210 210 255
295.989 124.958 -50.1017 210 210 210 255
295.989 124.958 -46.6288 210 210 210 255
295.989 124.958 -43.1735 210 210 210 255
295.989 124.958 -39.7361 210 210 210 255
295.989 124.958 -36.317 210 210 210 255
295.989 124.958 -32.9163 210 210 210 255
295.989 124.958 -29.5345 210 210 210 255
295.989 124.958 -26.172 210 210 210 255
295.989 124.958 -22.8288 210 210 210 255
295.989 124.958 -19.5055 210 210 210 255
295.989 124.958 -16.2024 210 210 210 255
295.989 124.958 -12.9197 210 210 210 255
295.989 124.958 -9.6579 210 210 210 255
295.989 124.958 -6.41699 210 210 210 255
295.989 124.958 -3.19763 210 210 210 255
295.989 124.958 0 210 210 210 255
295.144 127.336 -748.431 210 210 210 255
295.144 127.336 -745.141 210 210 210 255
295.144 127.336 -741.842 210 210 210 255
295.144 127.336 -738.533 210 210 210 255
295.144 127.336 -735.214 210 210 210 255
295.144 127.336 -731.886 210 210 210 255
295.144 127.336 -728.548 210 210 210 255
295.144 127.336 -725.201 210 210 210 255
295.144 127.336 -721.843 210 210 210 255
295.144 127.336 -718.477 210 210 210 255
295.144 127.336 -715.1 210 210 210 255
295.144 127.336 -711.714 210 210 210 255
295.144 127.336 -708.318 210 210 210 255
295.144 127.336 -704.913 210 210 210 255
295.144 127.336 -701.498 210 210 210 255
295.144 127.336 -698.073 210 210 210 255
295.144 127.336 -694.639 210 210 210 255
295.144 127.336 -691.195 210 210 210 255
295.144 127.336 -687.741 210 210 210 255
295.144 127.336 -684.278 210 210 210 255
295.144 127.336 -680.805 210 210 210 255
295.144 127.336 -677.323 210 210 210 255
295.144 127.336 -673.831 210 210 210 255
295.144 127.336 -670.33 210 210 210 255
295.144 127.336 -666.819 210 210 210 255
295.144 127.336 -663.298 210 210 210 255
295.144 127.336 -659.769 210 210 210 255
295.144 127.336 -656.229 210 210 210 255
295.144 127.336 -652.681 210 210 210 255
295.144 127.336 -649.123 210 210 210 255
295.144 127.336 -645.556 210 210 210 255
295.144 127.336 -641.979 210 210 210 255
295.144 127.336 -638.393 210 210 210 255
295.144 127.336 -634.798 210 210 210 255
295.144 127.336 -631.194 210 210 210 255
295.144 127.336 -627.581 210 210 210 255
295.144 127.336 -623.958 210 210 210 255
295.144 127.336 -620.327 210 210 210 255
295.144 127.336 -616.686 210 210 210 255
295.144 127.336 -613.037 210 210 210 255
295.144 127.336 -609.379 210 210 210 255
295.144 127.336 -605.711 210 210 210 255
295.144 127.336 -602.036 210 210 210 255
295.144 127.336 -598.351 210 210 210 255
295.144 127.336 -594.658 210 210 210 255
295.144 127.336 -590.956 210 210 210 255
295.144 127.336 -587.245 210 210 210 255
295.144 127.336 -583.526 210 210 210 255
295.144 127.336 -579.799 210 210 210 255
295.144 127.336 -576.063 210 210 210 255
295.144 127.336 -572.32 210 210 210 255
295.144 127.336 -568.568 210 210 210 255
295.144 127.336 -564.807 210 210 210 255
295.144 127.336 -561.039 210 210 210 255
295.144 127.336 -557.263 210 210 210 255
295.144 127.336 -553.479 210 210 210 255
295.144 127.336 -549.687 210 210 210 255
295.144 127.336 -545.887 210 210 210 255
295.144 127.336 -542.079 210 210 210 255
295.144 127.336 -538.265 210 210 210 255
295.144 127.336 -534.442 210 210 210 255
295.144 127.336 -530.612 210 210 210 255
295.144 127.336 -526.775 210 210 210 255
295.144 127.336 -522.931 210 210 210 255
295.144 127.336 -519.08 210 210 210 255
295.144 127.336 -515.221 210 210 210 255
295.144 127.336 -511.356 210 210 210 255
295.144 127.336 -507.484 210 210 210 255
295.144 127.336 -503.605 210 210 210 255
295.144 127.336 -499.72 210 210 210 255
295.144 127.336 -495.828 210 210 210 255
295.144 127.336 -491.93 210 210 210 255
295.144 127.336 -488.025 210 210 210 255
295.144 127.336 -484.115 210 210 210 255
295.144 127.336 -480.198 210 210 210 255
295.144 127.336 -476.275 210 210 210 255
295.144 127.336 -472.347 210 210 210 255
295.144 127.336 -468.412 210 210 210 255
295.144 127.336 -464.473 210 210 210 255
295.144 127.336 -460.527 210 210 210 255
295.144 127.336 -456.577 210 210 210 255
295.144 127.336 -452.621 210 210 210 255
295.144 127.336 -448.66 210 210 210 255
295.144 127.336 -444.694 210 210 210 255
295.144 127.336 -440.724 210 210 210 255
295.144 127.336 -436.748 210 210 210 255
295.144 127.336 -432.768 210 210 210 255
295.144 127.336 -428.784 210 210 210 255
295.144 127.336 -424.796 210 210 210 255
295.144 127.336 -420.803 210 210 210 255
295.144 127.336 -416.806 210 210 210 255
295.144 127.336 -412.806 210 210 210 255
295.144 127.336 -408.801 210 210 210 255
295.144 127.336 -404.794 210 210 210 255
295.144 127.336 -400.782 210 210 210 255
295.144 127.336 -396.768 210 210 210 255
295.144 127.336 -392.75 210 210 210 255
295.144 127.336 -388.73 210 210 210 255
295.144 127.336 -384.706 210 210 210 255
295.144 127.336 -380.68 210 210 210 255
295.144 127.336 -376.652 210 210 210 255
295.144 127.336 -372.621 210 210 210 255
295.144 127.336 -368.588 210 210 210 255
295.144 127.336 -364.554 210 210 210 255
295.144 127.336 -360.517 210 210 210 255
295.144 127.336 -356.479 210 210 210 255
295.144 127.336 -352.439 210 210 210 255
295.144 127.336 -348.398 210 210 210 255
295.144 127.336 -344.355 210 210 210 255
295.144 127.336 -340.312 210 210 210 255
295.144 127.336 -336.268 210 210 210 255
295.144 127.336 -332.224 210 210 210 255
295.144 127.336 -328.179 210 210 210 255
295.144 127.336 -324.134 210 210 210 255
295.144 127.336 -320.089 210 210 210 255
295.144 127.336 -316.044 210 210 210 255
295.144 127.336 -311.999 210 210 210 255
295.144 127.336 -307.955 210 210 210 255
295.144 127.336 -303.911 210 210 210 255
295.144 127.336 -299.869 210 210 210 255
295.144 127.336 -295.827 210 210 210 255
295.144 127.336 -291.787 210 210 210 255
295.144 127.336 -287.749 210 210 210 255
295.144 127.336 -283.712 210 210 210 255
295.144 127.336 -279.677 210 210 210 255
295.144 127.336 -275.644 210 210 210 255
295.144 127.336 -271.613 210 210 210 255
295.144 127.336 -267.585 210 210 210 255
295.144 127.336 -263.56 210 210 210 255
295.144 127.336 -259.538 210 210 210 255
295.144 127.336 -255.519 210 210 210 255
295.144 127.336 -251.503 210 210 210 255
295.144 127.336 -247.491 210 210 210 255
295.144 127.336 -243.483 210 210 210 255
295.144 127.336 -239.479 210 210 210 255
295.144 127.336 -235.479 210 210 210 255
295.144 127.336 -231.483 210 210 210 255
295.144 127.336 -227.493 210 210 210 255
295.144 127.336 -223.507 210 210 210 255
295.144 127.336 -219.526 210 210 210 255
295.144 127.336 -215.551 210 210 210 255
295.144 127.336 -211.582 210 210 210 255
295.144 127.336 -207.618 210 210 210 255
295.144 127.336 -203.661 210 210 210 255
295.144 127.336 -199.71 210 210 210 255
295.144 127.336 -195.765 210 210 210 255
295.144 127.336 -191.828 210 210 210 255
295.144 127.336 -187.897 210 210 210 255
295.144 127.336 -183.974 210 210 210 255
295.144 127.336 -180.059 210 210 210 255
295.144 127.336 -176.151 210 210 210 255
295.144 127.336 -172.251 210 210 210 255
295.144 127.336 -168.36 210 210 210 255
295.144 127.336 -164.477 210 210 210 255
295.144 127.336 -160.604 210 210 210 255
295.144 127.336 -156.739 210 210 210 255
295.144 127.336 -152.884 210 210 210 255
295.144 127.336 -149.038 210 210 210 255
295.144 127.336 -145.203 210 210 210 255
295.144 127.336 -141.377 210 210 210 255
295.144 127.336 -137.562 210 210 210 255
295.144 127.336 -133.758 210 210 210 255
295.144 127.336 -129.965 210 210 210 255
295.144 127.336 -126.183 210 210 210 255
295.144 127.336 -122.412 210 210 210 255
295.144 127.336 -118.654 210 210 210 255
295.144 127.336 -114.907 210 210 210 255
295.144 127.336 -111.173 210 210 210 255
295.144 127.336 -107.451 210 210 210 255
295.144 127.336 -103.743 210 210 210 255
295.144 127.336 -100.048 210 210 210 255
295.144 127.336 -96.3659 210 210 210 255
295.144 127.336 -92.6979 210 210 210 255
295.144 127.336 -89.0441 210 210 210 255
295.144 127.336 -85.4047 210 210 210 255
295.144 127.336 -81.78 210 210 210 255
295.144 127.336 -78.1703 210 210 210 255
295.144 127.336 -74.576 210 210 210 255
295.144 127.336 -70.9972 210 210 210 255
295.144 127.336 -67.4343 210 210 210 255
295.144 127.336 -63.8876 210 210 210 255
295.144 127.336 -60.3574 210 210 210 255
295.144 127.336 -56.8441 210 210 210 255
295.144 127.336 -53.3479 210 210 210 255
295.144 127.336 -49.8693 210 210 210 255
295.144 127.336 -46.4082 210 210 210 255
295.144 127.336 -42.9653 210 210 210 255
295.144 127.336 -39.5408 210 210 210 255
295.144 127.336 -36.1351 210 210 210 255
295.144 127.336 -32.7483 210 210 210 255
295.144 127.336 -29.381 210 210 210 255
295.144 127.336 -26.0332 210 210 210 255
295.144 127.336 -22.7056 210 210 210 255
295.144 127.336 -19.3983 210 210 210 255
295.144 127.336 -16.1116 210 210 210 255
295.144 127.336 -12.8459 210 210 210 255
295.144 127.336 -9.60156 210 210 210 255
295.144 127.336 -6.37897 210 210 210 255
295.144 127.336 -3.17828 210 210 210 255
295.144 127.336 0 210 210 210 255
294.295 129.708 -748.705 210 210 210 255
294.295 129.708 -745.41 210 210 210 255
294.295 129.708 -742.105 210 210 210 255
294.295 129.708 -738.791 210 210 210 255
294.295 129.708 -735.467 210 210 210 255
294.295 129.708 -732.133 210 210 210 255
294.295 129.708 -728.79 210 210 210 255
294.295 129.708 -725.438 210 210 210 255
294.295 129.708 -722.076 210 210 210 255
294.295 129.708 -718.704 210 210 210 255
294.295 129.708 -715.323 210 210 210 255
294.295 129.708 -711.932 210 210 210 255
294.295 129.708 -708.531 210 210 210 255
294.295 129.708 -705.121 210 210 210 255
294.295 129.708 -701.701 210 210 210 255
294.295 129.708 -698.272 210 210 210 255
294.295 129.708 -694.833 210 210 210 255
294.295 129.708 -691.384 210 210 210 255
294.295 129.708 -687.926 210 210 210 255
294.295 129.708 -684.458 210 210 210 255
294.295 129.708 -680.981 210 210 210 255
294.295 129.708 -677.494 210 210 210 255
294.295 129.708 -673.998 210 210 210 255
294.295 129.708 -670.492 210 210 210 255
294.295 129.708 -666.977 210 210 210 255
294.295 129.708 -663.452 210 210 210 255
294.295 129.708 -659.917 210 210 210 255
294.295 129.708 -656.374 210 210 210 255
294.295 129.708 -652.821 210 210 210 255
294.295 129.708 -649.258 210 210 210 255
294.295 129.708 -645.687 210 210 210 255
294.295 129.708 -642.105 210 210 210 255
294.295 129.708 -638.515 210 210 210 255
294.295 129.708 -634.916 210 210 210 255
294.295 129.708 -631.307 210 210 210 255
294.295 129.708 -627.689 210 210 210 255
294.295 129.708 -624.062 210 210 210 255
294.295 129.708 -620.426 210 210 210 255
294.295 129.708 -616.781 210 210 210 255
294.295 129.708 -613.127 210 210 210 255
294.295 129.708 -609.464 210 210 210 255
294.295 129.708 -605.793 210 210 210 255
294.295 129.708 -602.112 210 210 210 255
294.295 129.708 -598.423 210 210 210 255
294.295 129.708 -594.725 210 210 210 255
294.295 129.708 -591.018 210 210 210 255
294.295 129.708 -587.303 210 210 210 255
294.295 129.708 -583.58 210 210 210 255
294.295 129.708 -579.848 210 210 210 255
294.295 129.708 -576.107 210 210 210 255
294.295 129.708 -572.358 210 210 210 255
294.295 129.708 -568.601 210 210 210 255
294.295 129.708 -564.836 210 210 210 255
294.295 129.708 -561.063 210 210 210 255
294.295 129.708 -557.282 210 210 210 255
294.295 129.708 -553.493 210 210 210 255
294.295 129.708 -549.696 210 210 210 255
294.295 129.708 -545.891 210 210 210 255
294.295 129.708 -542.079 210 210 210 255
294.295 129.708 -538.259 210 210 210 255
294.295 129.708 -534.431 210 210 210 255
294.295 129.708 -530.596 210 210 210 255
294.295 129.708 -526.754 210 210 210 255
294.295 129.708 -522.905 210 210 210 255
294.295 129.708 -519.048 210 210 210 255
294.295 129.708 -515.184 210 210 210 255
294.295 129.708 -511.314 210 210 210 255
294.295 129.708 -507.436 210 210 210 255
294.295 129.708 -503.552 210 210 210 255
294.295 129.708 -499.661 210 210 210 255
294.295 129.708 -495.764 210 210 210 255
294.295 129.708 -491.86 210 210 210 255
294.295 129.708 -487.95 210 210 210 255
294.295 129.708 -484.034 210 210 210 255
294.295 129.708 -480.112 210 210 210 255
294.295 129.708 -476.184 210 210 210 255
294.295 129.708 -472.25 210 210 210 255
294.295 129.708 -468.31 210 210 210 255
294.295 129.708 -464.364 210 210 210 255
294.295 129.708 -460.413 210 210 210 255
294.295 129.708 -456.457 210 210 210 255
294.295 129.708 -452.496 210 210 210 255
294.295 129.708 -448.529 210 210 210 255
294.295 129.708 -444.558 210 210 210 255
294.295 129.708 -440.581 210 210 210 255
294.295 129.708 -436.6 210 210 210 255
294.295 129.708 -432.615 210 210 210 255
294.295 129.708 -428.624 210 210 210 255
294.295 129.708 -424.63 210 210 210 255
294.295 129.708 -420.632 210 210 210 255
294.295 129.708 -416.629 210 210 210 255
294.295 129.708 -412.623 210 210 210 255
294.295 129.708 -408.613 210 210 210 255
294.295 129.708 -404.599 210 210 210 255
294.295 129.708 -400.582 210 210 210 255
294.295 129.708 -396.562 210 210 210 255
294.295 129.708 -392.539 210 210 210 255
294.295 129.708 -388.512 210 210 210 255
294.295 129.708 -384.483 210 210 210 255
294.295 129.708 -380.452 210 210 210 255
294.295 129.708 -376.418 210 210 210 255
294.295 129.708 -372.381 210 210 210 255
294.295 129.708 -368.343 210 210 210 255
294.295 129.708 -364.302 210 210 210 255
294.295 129.708 -360.26 210 210 210 255
294.295 129.708 -356.216 210 210 210 255
294.295 129.708 -352.171 210 210 210 255
294.295 129.708 -348.124 210 210 210 255
294.295 129.708 -344.077 210 210 210 255
294.295 129.708 -340.028 210 210 210 255
294.295 129.708 -335.979 210 210 210 255
294.295 129.708 -331.929 210 210 210 255
294.295 129.708 -327.879 210 210 210 255
294.295 129.708 -323.828 210 210 210 255
294.295 129.708 -319.778 210 210 210 255
294.295 129.708 -315.728 210 210 210 255
294.295 129.708 -311.678 210 210 210 255
294.295 129.708 -307.629 210 210 210 255
294.295 129.708 -303.581 210 210 210 255
294.295 129.708 -299.534 210 210 210 255
294.295 129.708 -295.488 210 210 210 255
294.295 129.708 -291.443 210 210 210 255
294.295 129.708 -287.4 210 210 210 255
294.295 129.708 -283.359 210 210 210 255
294.295 129.708 -279.319 210 210 210 255
294.295 129.708 -275.282 210 210 210 255
294.295 129.708 -271.248 210 210 210 255
294.295 129.708 -267.216 210 210 210 255
294.295 129.708 -263.187 210 210 210 255
294.295 129.708 -259.161 210 210 210 255
294.295 129.708 -255.138 210 210 210 255
294.295 129.708 -251.119 210 210 210 255
294.295 129.708 -247.104 210 210 210 255
294.295 129.708 -243.092 210 210 210 255
294.295 129.708 -239.085 210 210 210 255
294.295 129.708 -235.082 210 210 210 255
294.295 129.708 -231.084 210 210 210 255
294.295 129.708 -227.091 210 210 210 255
294.295 129.708 -223.103 210 210 210 255
294.295 129.708 -219.12 210 210 210 255
294.295 129.708 -215.143 210 210 210 255
294.295 129.708 -211.171 210 210 210 255
294.295 129.708 -207.206 210 210 210 255
294.295 129.708 -203.247 210 210 210 255
294.295 129.708 -199.295 210 210 210 255
294.295 129.708 -195.349 210 210 210 255
294.295 129.708 -191.411 210 210 210 255
294.295 129.708 -187.479 210 210 210 255
294.295 129.708 -183.556 210 210 210 255
294.295 129.708 -179.64 210 210 210 255
294.295 129.708 -175.732 210 210 210 255
294.295 129.708 -171.833 210 210 210 255
294.295 129.708 -167.942 210 210 210 255
294.295 129.708 -164.06 210 210 210 255
294.295 129.708 -160.187 210 210 210 255
294.295 129.708 -156.324 210 210 210 255
294.295 129.708 -152.47 210 210 210 255
294.295 129.708 -148.626 210 210 210 255
294.295 129.708 -144.793 210 210 210 255
294.295 129.708 -140.97 210 210 210 255
294.295 129.708 -137.157 210 210 210 255
294.295 129.708 -133.356 210 210 210 255
294.295 129.708 -129.566 210 210 210 255
294.295 129.708 -125.787 210 210 210 255
294.295 129.708 -122.021 210 210 210 255
294.295 129.708 -118.266 210 210 210 255
294.295 129.708 -114.524 210 210 210 255
294.295 129.708 -110.795 210 210 210 255
294.295 129.708 -107.078 210 210 210 255
294.295 129.708 -103.375 210 210 210 255
294.295 129.708 -99.686 210 210 210 255
294.295 129.708 -96.0106 210 210 210 255
294.295 129.708 -92.3492 210 210 210 255
294.295 129.708 -88.7025 210 210 210 255
294.295 129.708 -85.0706 210 210 210 255
294.295 129.708 -81.4536 210 210 210 255
294.295 129.708 -77.8521 210 210 210 255
294.295 129.708 -74.2664 210 210 210 255
294.295 129.708 -70.6966 210 210 210 255
294.295 129.708 -67.1432 210 210 210 255
294.295 129.708 -63.6064 210 210 210 255
294.295 129.708 -60.0865 210 210 210 255
294.295 129.708 -56.584 210 210 210 255
294.295 129.708 -53.0991 210 210 210 255
294.295 129.708 -49.6321 210 210 210 255
294.295 129.708 -46.1832 210 210 210 255
294.295 129.708 -42.753 210 210 210 255
294.295 129.708 -39.3418 210 210 210 255
294.295 129.708 -35.9496 210 210 210 255
294.295 129.708 -32.577 210 210 210 255
294.295 129.708 -29.2243 210 210 210 255
294.295 129.708 -25.8918 210 210 210 255
294.295 129.708 -22.5798 210 210 210 255
294.295 129.708 -19.2888 210 210 210 255
294.295 129.708 -16.0189 210 210 210 255
294.295 129.708 -12.7706 210 210 210 255
294.295 129.708 -9.54425 210 210 210 255
294.295 129.708 -6.34009 210 210 210 255
294.295 129.708 -3.15863 210 210 210 255
294.295 129.708 0 210 210 210 255
293.444 132.075 -748.989 210 210 210 255
293.444 132.075 -745.688 210 210 210 255
293.444 132.075 -742.377 210 210 210 255
293.444 132.075 -739.057 210 210 210 255
293.444 132.075 -735.728 210 210 210 255
293.444 132.075 -732.389 210 210 210 255
293.444 132.075 -729.041 210 210 210 255
293.444 132.075 -725.683 210 210 210 255
293.444 132.075 -722.316 210 210 210 255
293.444 132.075 -718.939 210 210 210 255
293.444 132.075 -715.553 210 210 210 255
293.444 132.075 -712.157 210 210 210 255
293.444 132.075 -708.751 210 210 210 255
293.444 132.075 -705.336 210 210 210 255
293.444 132.075 -701.911 210 210 210 255
293.444 132.075 -698.477 210 210 210 255
293.444 132.075 -695.033 210 210 210 255
293.444 132.075 -691.58 210 210 210 255
293.444 132.075 -688.117 210 210 210 255
293.444 132.075 -684.645 210 210 210 255
293.444 132.075 -681.163 210 210 210 255
293.444 132.075 -677.671 210 210 210 255
293.444 132.075 -674.17 210 210 210 255
293.444 132.075 -670.66 210 210 210 255
293.444 132.075 -667.14 210 210 210 255
293.444 132.075 -663.61 210 210 210 255
293.444 132.075 -660.071 210 210 210 255
293.444 132.075 -656.523 210 210 210 255
293.444 132.075 -652.965 210 210 210 255
293.444 132.075 -649.398 210 210 210 255
293.444 132.075 -645.822 210 210 210 255
293.444 132.075 -642.236 210 210 210 255
293.444 132.075 -638.641 210 210 210 255
293.444 132.075 -635.037 210 210 210 255
293.444 132.075 -631.424 210 210 210 255
293.444 132.075 -627.802 210 210 210 255
293.444 132.075 -624.17 210 210 210 255
293.444 132.075 -620.529 210 210 210 255
293.444 132.075 -616.88 210 210 210 255
293.444 132.075 -613.221 210 210 210 255
293.444 132.075 -609.554 210 210 210 255
293.444 132.075 -605.877 210 210 210 255
293.444 132.075 -602.192 210 210 210 255
293.444 132.075 -598.498 210 210 210 255
293.444 132.075 -594.795 210 210 210 255
293.444 132.075 -591.084 210 210 210 255
293.444 132.075 -587.364 210 210 210 255
293.444 132.075 -583.635 210 210 210 255
293.444 132.075 -579.898 210 210 210 255
293.444 132.075 -576.153 210 210 210 255
293.444 132.075 -572.399 210 210 210 255
293.444 132.075 -568.637 210 210 210 255
293.444 132.075 -564.867 210 210 210 255
293.444 132.075 -561.089 210 210 210 255
293.444 132.075 -557.303 210 210 210 255
293.444 132.075 -553.509 210 210 210 255
293.444 132.075 -549.706 210 210 210 255
293.444 132.075 -545.897 210 210 210 255
293.444 132.075 -542.079 210 210 210 255
293.444 132.075 -538.254 210 210 210 255
293.444 132.075 -534.421 210 210 210 255
293.444 132.075 -530.581 210 210 210 255
293.444 132.075 -526.733 210 210 210 255
293.444 132.075 -522.878 210 210 210 255
293.444 132.075 -519.016 210 210 210 255
293.444 132.075 -515.147 210 210 210 255
293.444 132.075 -511.271 210 210 210 255
293.444 132.075 -507.388 210 210 210 255
293.444 132.075 -503.499 210 210 210 255
293.444 132.075 -499.603 210 210 210 255
293.444 132.075 -495.7 210 210 210 255
293.444 132.075 -491.79 210 210 210 255
293.444 132.075 -487.875 210 210 210 255
293.444 132.075 -483.953 210 210 210 255
293.444 132.075 -480.025 210 210 210 255
293.444 132.075 -476.091 210 210 210 255
293.444 132.075 -472.151 210 210 210 255
293.444 132.075 -468.206 210 210 210 255
293.444 132.075 -464.254 210 210 210 255
293.444 132.075 -460.298 210 210 210 255
293.444 132.075 -456.336 210 210 210 255
293.444 132.075 -452.368 210 210 210 255
293.444 132.075 -448.396 210 210 210 255
293.444 132.075 -444.419 210 210 210 255
293.444 132.075 -440.436 210 210 210 255
293.444 132.075 -436.449 210 210 210 255
293.444 132.075 -432.458 210 210 210 255
293.444 132.075 -428.462 210 210 210 255
293.444 132.075 -424.462 210 210 210 255
293.444 132.075 -420.457 210 210 210 255
293.444 132.075 -416.449 210 210 210 255
293.444 132.075 -412.437 210 210 210 255
293.444 132.075 -408.421 210 210 210 255
293.444 132.075 -404.401 210 210 210 255
293.444 132.075 -400.378 210 210 210 255
293.444 132.075 -396.352 210 210 210 255
293.444 132.075 -392.323 210 210 210 255
293.444 132.075 -388.291 210 210 210 255
293.444 132.075 -384.256 210 210 210 255
293.444 132.075 -380.219 210 210 210 255
293.444 132.075 -376.179 210 210 210 255
293.444 132.075 -372.136 210 210 210 255
293.444 132.075 -368.092 210 210 210 255
293.444 132.075 -364.046 210 210 210 255
293.444 132.075 -359.998 210 210 210 255
293.444 132.075 -355.948 210 210 210 255
293.444 132.075 -351.898 210 210 210 255
293.444 132.075 -347.845 210 210 210 255
293.444 132.075 -343.792 210 210 210 255
293.444 132.075 -339.738 210 210 210 255
293.444 132.075 -335.683 210 210 210 255
293.444 132.075 -331.628 210 210 210 255
293.444 132.075 -327.573 210 210 210 255
293.444 132.075 -323.517 210 210 210 255
293.444 132.075 -319.462 210 210 210 255
293.444 132.075 -315.406 210 210 210 255
293.444 132.075 -311.352 210 210 210 255
293.444 132.075 -307.298 210 210 210 255
293.444 132.075 -303.244 210 210 210 255
293.444 132.075 -299.192 210 210 210 255
293.444 132.075 -295.141 210 210 210 255
293.444 132.075 -291.092 210 210 210 255
293.444 132.075 -287.044 210 210 210 255
293.444 132.075 -282.999 210 210 210 255
293.444 132.075 -278.955 210 210 210 255
293.444 132.075 -274.914 210 210 210 255
293.444 132.075 -270.875 210 210 210 255
293.444 132.075 -266.839 210 210 210 255
293.444 132.075 -262.806 210 210 210 255
293.444 132.075 -258.776 210 210 210 255
293.444 132.075 -254.75 210 210 210 255
293.444 132.075 -250.727 210 210 210 255
293.444 132.075 -246.708 210 210 210 255
293.444 132.075 -242.694 210 210 210 255
293.444 132.075 -238.683 210 210 210 255
293.444 132.075 -234.677 210 210 210 255
293.444 132.075 -230.677 210 210 210 255
293.444 132.075 -226.681 210 210 210 255
293.444 132.075 -222.69 210 210 210 255
293.444 132.075 -218.705 210 210 210 255
293.444 132.075 -214.726 210 210 210 255
293.444 132.075 -210.752 210 210 210 255
293.444 132.075 -206.785 210 210 210 255
293.444 132.075 -202.825 210 210 210 255
293.444 132.075 -198.871 210 210 210 255
293.444 132.075 -194.924 210 210 210 255
293.444 132.075 -190.985 210 210 210 255
293.444 132.075 -187.053 210 210 210 255
293.444 132.075 -183.129 210 210 210 255
293.444 132.075 -179.213 210 210 210 255
293.444 132.075 -175.305 210 210 210 255
293.444 132.075 -171.406 210 210 210 255
293.444 132.075 -167.516 210 210 210 255
293.444 132.075 -163.635 210 210 210 255
293.444 132.075 -159.763 210 210 210 255
293.444 132.075 -155.901 210 210 210 255
293.444 132.075 -152.048 210 210 210 255
293.444 132.075 -148.206 210 210 210 255
293.444 132.075 -144.375 210 210 210 255
293.444 132.075 -140.554 210 210 210 255
293.444 132.075 -136.744 210 210 210 255
293.444 132.075 -132.946 210 210 210 255
293.444 132.075 -129.159 210 210 210 255
293.444 132.075 -125.384 210 210 210 255
293.444 132.075 -121.621 210 210 210 255
293.444 132.075 -117.871 210 210 210 255
293.444 132.075 -114.134 210 210 210 255
293.444 132.075 -110.409 210 210 210 255
293.444 132.075 -106.698 210 210 210 255
293.444 132.075 -103.001 210 210 210 255
293.444 132.075 -99.3174 210 210 210 255
293.444 132.075 -95.6483 210 210 210 255
293.444 132.075 -91.9938 210 210 210 255
293.444 132.075 -88.3541 210 210 210 255
293.444 132.075 -84.7296 210 210 210 255
293.444 132.075 -81.1208 210 210 210 255
293.444 132.075 -77.5275 210 210 210 255
293.444 132.075 -73.9506 210 210 210 255
293.444 132.075 -70.3901 210 210 210 255
293.444 132.075 -66.8463 210 210 210 255
293.444 132.075 -63.3196 210 210 210 255
293.444 132.075 -59.8104 210 210 210 255
293.444 132.075 -56.3188 210 210 210 255
293.444 132.075 -52.8453 210 210 210 255
293.444 132.075 -49.3903 210 210 210 255
293.444 132.075 -45.9539 210 210 210 255
293.444 132.075 -42.5366 210 210 210 255
293.444 132.075 -39.1386 210 210 210 255
293.444 132.075 -35.7604 210 210 210 255
293.444 132.075 -32.4022 210 210 210 255
293.444 132.075 -29.0645 210 210 210 255
293.444 132.075 -25.7474 210 210 210 255
293.444 132.075 -22.4515 210 210 210 255
293.444 132.075 -19.1771 210 210 210 255
293.444 132.075 -15.9245 210 210 210 255
293.444 132.075 -12.6939 210 210 210 255
293.444 132.075 -9.48578 210 210 210 255
293.444 132.075 -6.3006 210 210 210 255
293.444 132.075 -3.13849 210 210 210 255
293.444 132.075 0 210 210 210 255
292.59 134.437 -749.281 210 210 210 255
292.59 134.437 -745.974 210 210 210 255
292.59 134.437 -742.658 210 210 210 255
292.59 134.437 -739.333 210 210 210 255
292.59 134.437 -735.998 210 210 210 255
292.59 134.437 -732.654 210 210 210 255
292.59 134.437 -729.3 210 210 210 255
292.59 134.437 -725.937 210 210 210 255
292.59 134.437 -722.564 210 210 210 255
292.59 134.437 -719.182 210 210 210 255
292.59 134.437 -715.79 210 210 210 255
292.59 134.437 -712.389 210 210 210 255
292.59 134.437 -708.979 210 210 210 255
292.59 134.437 -705.558 210 210 210 255
292.59 134.437 -702.129 210 210 210 255
292.59 134.437 -698.689 210 210 210 255
292.59 134.437 -695.241 210 210 210 255
292.59 134.437 -691.782 210 210 210 255
292.59 134.437 -688.315 210 210 210 255
292.59 134.437 -684.837 210 210 210 255
292.59 134.437 -681.351 210 210 210 255
292.59 134.437 -677.854 210 210 210 255
292.59 134.437 -674.348 210 210 210 255
292.59 134.437 -670.833 210 210 210 255
292.59 134.437 -667.308 210 210 210 255
292.59 134.437 -663.774 210 210 210 255
292.59 134.437 -660.231 210 210 210 255
292.59 134.437 -656.677 210 210 210 255
292.59 134.437 -653.115 210 210 210 255
292.59 134.437 -649.543 210 210 210 255
292.59 134.437 -645.962 210 210 210 255
292.59 134.437 -642.372 210 210 210 255
292.59 134.437 -638.772 210 210 210 255
292.59 134.437 -635.163 210 210 210 255
292.59 134.437 -631.545 210 210 210 255
292.59 134.437 -627.918 210 210 210 255
292.59 134.437 -624.282 210 210 210 255
292.59 134.437 -620.636 210 210 210 255
292.59 134.437 -616.982 210 210 210 255
292.59 134.437 -613.318 210 210 210 255
292.59 134.437 -609.646 210 210 210 255
292.59 134.437 -605.965 210 210 210 255
292.59 134.437 -602.275 210 210 210 255
292.59 134.437 -598.576 210 210 210 255
292.59 134.437 -594.868 210 210 210 255
292.59 134.437 -591.152 210 210 210 255
292.59 134.437 -587.427 210 210 210 255
292.59 134.437 -583.693 210 210 210 255
292.59 134.437 -579.951 210 210 210 255
292.59 134.437 -576.201 210 210 210 255
292.59 134.437 -572.442 210 210 210 255
292.59 134.437 -568.675 210 210 210 255
292.59 134.437 -564.9 210 210 210 255
292.59 134.437 -561.116 210 210 210 255
292.59 134.437 -557.325 210 210 210 255
292.59 134.437 -553.526 210 210 210 255
292.59 134.437 -549.718 210 210 210 255
292.59 134.437 -545.903 210 210 210 255
292.59 134.437 -542.08 210 210 210 255
292.59 134.437 -538.25 210 210 210 255
292.59 134.437 -534.411 210 210 210 255
292.59 134.437 -530.566 210 210 210 255
292.59 134.437 -526.713 210 210 210 255
292.59 134.437 -522.853 210 210 210 255
292.59 134.437 -518.985 210 210 210 255
292.59 134.437 -515.11 210 210 210 255
292.59 134.437 -511.229 210 210 210 255
292.59 134.437 -507.34 210 210 210 255
292.59 134.437 -503.445 210 210 210 255
292.59 134.437 -499.543 210 210 210 255
292.59 134.437 -495.635 210 210 210 255
292.59 134.437 -491.72 210 210 210 255
292.59 134.437 -487.798 210 210 210 255
292.59 134.437 -483.871 210 210 210 255
292.59 134.437 -479.937 210 210 210 255
292.59 134.437 -475.997 210 210 210 255
292.59 134.437 -472.051 210 210 210 255
292.59 134.437 -468.1 210 210 210 255
292.59 134.437 -464.143 210 210 210 255
292.59 134.437 -460.18 210 210 210 255
292.59 134.437 -456.212 210 210 210 255
292.59 134.437 -452.239 210 210 210 255
292.59 134.437 -448.261 210 210 210 255
292.59 134.437 -444.277 210 210 210 255
292.59 134.437 -440.289 210 210 210 255
292.59 134.437 -436.296 210 210 210 255
292.59 134.437 -432.299 210 210 210 255
292.59 134.437 -428.297 210 210 210 255
292.59 134.437 -424.29 210 210 210 255
292.59 134.437 -420.28 210 210 210 255
292.59 134.437 -416.266 210 210 210 255
292.59 134.437 -412.247 210 210 210 255
292.59 134.437 -408.225 210 210 210 255
292.59 134.437 -404.2 210 210 210 255
292.59 134.437 -400.171 210 210 210 255
292.59 134.437 -396.139 210 210 210 255
292.59 134.437 -392.104 210 210 210 255
292.59 134.437 -388.065 210 210 210 255
292.59 134.437 -384.025 210 210 210 255
292.59 134.437 -379.981 210 210 210 255
292.59 134.437 -375.935 210 210 210 255
292.59 134.437 -371.887 210 210 210 255
292.59 134.437 -367.837 210 210 210 255
292.59 134.437 -363.785 210 210 210 255
292.59 134.437 -359.731 210 210 210 255
292.59 134.437 -355.676 210 210 210 255
292.59 134.437 -351.619 210 210 210 255
292.59 134.437 -347.561 210 210 210 255
292.59 134.437 -343.503 210 210 210 255
292.59 134.437 -339.443 210 210 210 255
292.59 134.437 -335.383 210 210 210 255
292.59 134.437 -331.322 210 210 210 255
292.59 134.437 -327.261 210 210 210 255
292.59 134.437 -323.2 210 210 210 255
292.59 134.437 -319.139 210 210 210 255
292.59 134.437 -315.078 210 210 210 255
292.59 134.437 -311.018 210 210 210 255
292.59 134.437 -306.959 210 210 210 255
292.59 134.437 -302.901 210 210 210 255
292.59 134.437 -298.844 210 210 210 255
292.59 134.437 -294.788 210 210 210 255
292.59 134.437 -290.734 210 210 210 255
292.59 134.437 -286.682 210 210 210 255
292.59 134.437 -282.632 210 210 210 255
292.59 134.437 -278.583 210 210 210 255
292.59 134.437 -274.538 210 210 210 255
292.59 134.437 -270.495 210 210 210 255
292.59 134.437 -266.455 210 210 210 255
292.59 134.437 -262.418 210 210 210 255
292.59 134.437 -258.384 210 210 210 255
292.59 134.437 -254.354 210 210 210 255
292.59 134.437 -250.328 210 210 210 255
292.59 134.437 -246.305 210 210 210 255
292.59 134.437 -242.287 210 210 210 255
292.59 134.437 -238.274 210 210 210 255
292.59 134.437 -234.265 210 210 210 255
292.59 134.437 -230.261 210 210 210 255
292.59 134.437 -226.263 210 210 210 255
292.59 134.437 -222.27 210 210 210 255
292.59 134.437 -218.282 210 210 210 255
292.59 134.437 -214.301 210 210 210 255
292.59 134.437 -210.325 210 210 210 255
292.59 134.437 -206.357 210 210 210 255
292.59 134.437 -202.394 210 210 210 255
292.59 134.437 -198.439 210 210 210 255
292.59 134.437 -194.492 210 210 210 255
292.59 134.437 -190.551 210 210 210 255
292.59 134.437 -186.619 210 210 210 255
292.59 134.437 -182.694 210 210 210 255
292.59 134.437 -178.778 210 210 210 255
292.59 134.437 -174.87 210 210 210 255
292.59 134.437 -170.971 210 210 210 255
292.59 134.437 -167.081 210 210 210 255
292.59 134.437 -163.201 210 210 210 255
292.59 134.437 -159.33 210 210 210 255
292.59 134.437 -155.469 210 210 210 255
292.59 134.437 -151.618 210 210 210 255
292.59 134.437 -147.778 210 210 210 255
292.59 134.437 -143.948 210 210 210 255
292.59 134.437 -140.13 210 210 210 255
292.59 134.437 -136.323 210 210 210 255
292.59 134.437 -132.528 210 210 210 255
292.59 134.437 -128.744 210 210 210 255
292.59 134.437 -124.973 210 210 210 255
292.59 134.437 -121.214 210 210 210 255
292.59 134.437 -117.468 210 210 210 255
292.59 134.437 -113.735 210 210 210 255
292.59 134.437 -110.016 210 210 210 255
292.59 134.437 -106.31 210 210 210 255
292.59 134.437 -102.619 210 210 210 255
292.59 134.437 -98.9415 210 210 210 255
292.59 134.437 -95.2789 210 210 210 255
292.59 134.437 -91.6313 210 210 210 255
292.59 134.437 -87.9989 210 210 210 255
292.59 134.437 -84.3823 210 210 210 255
292.59 134.437 -80.7814 210 210 210 255
292.59 134.437 -77.1968 210 210 210 255
292.59 134.437 -73.6287 210 210 210 255
292.59 134.437 -70.0775 210 210 210 255
292.59 134.437 -66.5435 210 210 210 255
292.59 134.437 -63.0272 210 210 210 255
292.59 134.437 -59.5286 210 210 210 255
292.59 134.437 -56.0483 210 210 210 255
292.59 134.437 -52.5865 210 210 210 255
292.59 134.437 -49.1436 210 210 210 255
292.59 134.437 -45.7198 210 210 210 255
292.59 134.437 -42.3157 210 210 210 255
292.59 134.437 -38.9314 210 210 210 255
292.59 134.437 -35.5674 210 210 210 255
292.59 134.437 -32.2241 210 210 210 255
292.59 134.437 -28.9016 210 210 210 255
292.59 134.437 -25.6003 210 210 210 255
292.59 134.437 -22.3208 210 210 210 255
292.59 134.437 -19.0632 210 210 210 255
292.59 134.437 -15.8281 210 210 210 255
292.59 134.437 -12.6156 210 210 210 255
292.59 134.437 -9.42615 210 210 210 255
292.59 134.437 -6.26031 210 210 210 255
292.59 134.437 -3.11798 210 210 210 255
292.59 134.437 0 210 210 210 255
291.736 136.792 -749.583 210 210 210 255
291.736 136.792 -746.27 210 210 210 255
291.736 136.792 -742.948 210 210 210 255
291.736 136.792 -739.617 210 210 210 255
291.736 136.792 -736.276 210 210 210 255
291.736 136.792 -732.926 210 210 210 255
291.736 136.792 -729.567 210 210 210 255
291.736 136.792 -726.198 210 210 210 255
291.736 136.792 -722.82 210 210 210 255
291.736 136.792 -719.432 210 210 210 255
291.736 136.792 -716.036 210 210 210 255
291.736 136.792 -712.629 210 210 210 255
291.736 136.792 -709.213 210 210 210 255
291.736 136.792 -705.788 210 210 210 255
291.736 136.792 -702.353 210 210 210 255
291.736 136.792 -698.909 210 210 210 255
291.736 136.792 -695.455 210 210 210 255
291.736 136.792 -691.991 210 210 210 255
291.736 136.792 -688.519 210 210 210 255
291.736 136.792 -685.036 210 210 210 255
291.736 136.792 -681.544 210 210 210 255
291.736 136.792 -678.043 210 210 210 255
291.736 136.792 -674.532 210 210 210 255
291.736 136.792 -671.012 210 210 210 255
291.736 136.792 -667.482 210 210 210 255
291.736 136.792 -663.943 210 210 210 255
291.736 136.792 -660.395 210 210 210 255
291.736 136.792 -656.837 210 210 210 255
291.736 136.792 -653.27 210 210 210 255
291.736 136.792 -649.693 210 210 210 255
291.736 136.792 -646.107 210 210 210 255
291.736 136.792 -642.512 210 210 210 255
291.736 136.792 -638.907 210 210 210 255
291.736 136.792 -635.294 210 210 210 255
291.736 136.792 -631.671 210 210 210 255
291.736 136.792 -628.038 210 210 210 255
291.736 136.792 -624.397 210 210 210 255
291.736 136.792 -620.747 210 210 210 255
291.736 136.792 -617.087 210 210 210 255
291.736 136.792 -613.419 210 210 210 255
291.736 136.792 -609.742 210 210 210 255
291.736 136.792 -606.055 210 210 210 255
291.736 136.792 -602.36 210 210 210 255
291.736 136.792 -598.656 210 210 210 255
291.736 136.792 -594.944 210 210 210 255
291.736 136.792 -591.222 210 210 210 255
291.736 136.792 -587.492 210 210 210 255
291.736 136.792 -583.754 210 210 210 255
291.736 136.792 -580.006 210 210 210 255
291.736 136.792 -576.251 210 210 210 255
291.736 136.792 -572.487 210 210 210 255
291.736 136.792 -568.715 210 210 210 255
291.736 136.792 -564.934 210 210 210 255
291.736 136.792 -561.145 210 210 210 255
291.736 136.792 -557.349 210 210 210 255
291.736 136.792 -553.544 210 210 210 255
291.736 136.792 -549.731 210 210 210 255
291.736 136.792 -545.911 210 210 210 255
291.736 136.792 -542.082 210 210 210 255
291.736 136.792 -538.246 210 210 210 255
291.736 136.792 -534.403 210 210 210 255
291.736 136.792 -530.551 210 210 210 255
291.736 136.792 -526.693 210 210 210 255
291.736 136.792 -522.827 210 210 210 255
291.736 136.792 -518.954 210 210 210 255
291.736 136.792 -515.073 210 210 210 255
291.736 136.792 -511.186 210 210 210 255
291.736 136.792 -507.292 210 210 210 255
291.736 136.792 -503.391 210 210 210 255
291.736 136.792 -499.483 210 210 210 255
291.736 136.792 -495.569 210 210 210 255
291.736 136.792 -491.648 210 210 210 255
291.736 136.792 -487.721 210 210 210 255
291.736 136.792 -483.787 210 210 210 255
291.736 136.792 -479.848 210 210 210 255
291.736 136.792 -475.902 210 210 210 255
291.736 136.792 -471.95 210 210 210 255
291.736 136.792 -467.993 210 210 210 255
291.736 136.792 -464.03 210 210 210 255
291.736 136.792 -460.061 210 210 210 255
291.736 136.792 -456.087 210 210 210 255
291.736 136.792 -452.108 210 210 210 255
291.736 136.792 -448.123 210 210 210 255
291.736 136.792 -444.134 210 210 210 255
291.736 136.792 -440.139 210 210 210 255
291.736 136.792 -436.14 210 210 210 255
291.736 136.792 -432.137 210 210 210 255
291.736 136.792 -428.129 210 210 210 255
291.736 136.792 -424.116 210 210 210 255
291.736 136.792 -420.1 210 210 210 255
291.736 136.792 -416.079 210 210 210 255
291.736 136.792 -412.055 210 210 210 255
291.736 136.792 -408.026 210 210 210 255
291.736 136.792 -403.995 210 210 210 255
291.736 136.792 -399.96 210 210 210 255
291.736 136.792 -395.921 210 210 210 255
291.736 136.792 -391.88 210 210 210 255
291.736 136.792 -387.836 210 210 210 255
291.736 136.792 -383.789 210 210 210 255
291.736 136.792 -379.739 210 210 210 255
291.736 136.792 -375.687 210 210 210 255
291.736 136.792 -371.633 210 210 210 255
