ply
format ascii 1.0
element vertex 1169
property float x
property float y
property float z
property uchar red
property uchar green
property uchar blue
property uchar alpha
end_header
276.141 138.001 -184.166 210 210 210 255
276.141 138.001 -180.251 210 210 210 255
276.141 138.001 -176.335 210 210 210 255
276.141 138.001 -172.42 210 210 210 255
276.141 138.001 -168.504 210 210 210 255
276.141 138.001 -164.588 210 210 210 255
276.141 138.001 -160.672 210 210 210 255
276.141 138.001 -156.755 210 210 210 255
276.141 138.001 -152.838 210 210 210 255
276.141 138.001 -148.921 210 210 210 255
276.141 138.001 -145.004 210 210 210 255
276.141 138.001 -141.086 210 210 210 255
276.141 138.001 -137.169 210 210 210 255
276.141 138.001 -133.251 210 210 210 255
276.141 138.001 -129.333 210 210 210 255
276.141 138.001 -125.415 210 210 210 255
276.141 138.001 -121.497 210 210 210 255
276.141 138.001 -117.579 210 210 210 255
276.141 138.001 -113.66 210 210 210 255
276.141 138.001 -109.742 210 210 210 255
276.141 138.001 -105.823 210 210 210 255
276.141 138.001 -101.904 210 210 210 255
276.141 138.001 -97.9855 210 210 210 255
276.141 138.001 -94.0666 210 210 210 255
276.141 138.001 -90.1476 210 210 210 255
276.141 138.001 -86.2286 210 210 210 255
276.141 138.001 -82.3093 210 210 210 255
276.141 138.001 -78.3902 210 210 210 255
276.141 138.001 -74.4708 210 210 210 255
276.141 138.001 -70.5516 210 210 210 255
276.141 138.001 -66.6321 210 210 210 255
276.141 138.001 -62.713 210 210 210 255
276.141 138.001 -58.7935 210 210 210 255
276.141 138.001 -54.8738 210 210 210 255
276.141 138.001 -50.9544 210 210 210 255
276.141 138.001 -47.035 210 210 210 255
276.141 138.001 -43.1154 210 210 210 255
276.141 138.001 -39.1959 210 210 210 255
276.141 138.001 -35.2764 210 210 210 255
276.141 138.001 -31.3569 210 210 210 255
276.141 138.001 -27.4371 210 210 210 255
276.141 138.001 -23.5175 210 210 210 255
276.141 138.001 -19.5981 210 210 210 255
276.141 138.001 -15.6783 210 210 210 255
276.141 138.001 -11.7588 210 210 210 255
276.141 138.001 -7.83923 210 210 210 255
276.141 138.001 -3.91962 210 210 210 255
276.141 138.001 0 210 210 210 255
276.115 132.892 -762.564 210 210 210 255
276.115 132.892 -758.992 210 210 210 255
276.115 132.892 -755.415 210 210 210 255
276.115 132.892 -751.833 210 210 210 255
276.115 132.892 -748.246 210 210 210 255
276.115 132.892 -744.654 210 210 210 255
276.115 132.892 -741.056 210 210 210 255
276.115 132.892 -737.454 210 210 210 255
276.115 132.892 -733.847 210 210 210 255
276.115 132.892 -730.234 210 210 210 255
276.115 132.892 -726.617 210 210 210 255
276.115 132.892 -722.996 210 210 210 255
276.115 132.892 -719.369 210 210 210 255
276.115 132.892 -715.738 210 210 210 255
276.115 132.892 -712.102 210 210 210 255
276.115 132.892 -708.462 210 210 210 255
276.115 132.892 -704.817 210 210 210 255
276.115 132.892 -701.168 210 210 210 255
276.115 132.892 -697.514 210 210 210 255
276.115 132.892 -693.856 210 210 210 255
276.115 132.892 -690.194 210 210 210 255
276.115 132.892 -686.527 210 210 210 255
276.115 132.892 -682.856 210 210 210 255
276.115 132.892 -679.181 210 210 210 255
276.115 132.892 -675.502 210 210 210 255
276.115 132.892 -671.819 210 210 210 255
276.115 132.892 -668.131 210 210 210 255
276.115 132.892 -664.44 210 210 210 255
276.115 132.892 -660.745 210 210 210 255
276.115 132.892 -657.046 210 210 210 255
276.115 132.892 -653.343 210 210 210 255
276.115 132.892 -649.636 210 210 210 255
276.115 132.892 -645.925 210 210 210 255
276.115 132.892 -642.211 210 210 210 255
276.115 132.892 -638.493 210 210 210 255
276.115 132.892 -634.771 210 210 210 255
276.115 132.892 -631.046 210 210 210 255
276.115 132.892 -627.317 210 210 210 255
276.115 132.892 -623.585 210 210 210 255
276.115 132.892 -619.849 210 210 210 255
276.115 132.892 -616.11 210 210 210 255
276.115 132.892 -612.368 210 210 210 255
276.115 132.892 -608.622 210 210 210 255
276.115 132.892 -604.873 210 210 210 255
276.115 132.892 -601.12 210 210 210 255
276.115 132.892 -597.365 210 210 210 255
276.115 132.892 -593.606 210 210 210 255
276.115 132.892 -589.844 210 210 210 255
276.115 132.892 -586.079 210 210 210 255
276.115 132.892 -582.311 210 210 210 255
276.115 132.892 -578.54 210 210 210 255
276.115 132.892 -574.766 210 210 210 255
276.115 132.892 -570.989 210 210 210 255
276.115 132.892 -567.209 210 210 210 255
276.115 132.892 -563.427 210 210 210 255
276.115 132.892 -559.642 210 210 210 255
276.115 132.892 -555.853 210 210 210 255
276.115 132.892 -552.062 210 210 210 255
276.115 132.892 -548.269 210 210 210 255
276.115 132.892 -544.473 210 210 210 255
276.115 132.892 -540.674 210 210 210 255
276.115 132.892 -536.872 210 210 210 255
276.115 132.892 -533.068 210 210 210 255
276.115 132.892 -529.262 210 210 210 255
276.115 132.892 -525.453 210 210 210 255
276.115 132.892 -521.641 210 210 210 255
276.115 132.892 -517.828 210 210 210 255
276.115 132.892 -514.012 210 210 210 255
276.115 132.892 -510.193 210 210 210 255
276.115 132.892 -506.372 210 210 210 255
276.115 132.892 -502.549 210 210 210 255
276.115 132.892 -498.724 210 210 210 255
276.115 132.892 -494.897 210 210 210 255
276.115 132.892 -491.067 210 210 210 255
276.115 132.892 -487.235 210 210 210 255
276.115 132.892 -483.402 210 210 210 255
276.115 132.892 -479.566 210 210 210 255
276.115 132.892 -475.728 210 210 210 255
276.115 132.892 -471.888 210 210 210 255
276.115 132.892 -468.046 210 210 210 255
276.115 132.892 -464.203 210 210 210 255
276.115 132.892 -460.357 210 210 210 255
276.115 132.892 -456.51 210 210 210 255
276.115 132.892 -452.66 210 210 210 255
276.115 132.892 -448.809 210 210 210 255
276.115 132.892 -444.956 210 210 210 255
276.115 132.892 -441.102 210 210 210 255
276.115 132.892 -437.245 210 210 210 255
276.115 132.892 -433.388 210 210 210 255
276.115 132.892 -429.528 210 210 210 255
276.115 132.892 -425.667 210 210 210 255
276.115 132.892 -421.804 210 210 210 255
276.115 132.892 -417.94 210 210 210 255
276.115 132.892 -414.074 210 210 210 255
276.115 132.892 -410.206 210 210 210 255
276.115 132.892 -406.338 210 210 210 255
276.115 132.892 -402.467 210 210 210 255
276.115 132.892 -398.595 210 210 210 255
276.115 132.892 -394.723 210 210 210 255
276.115 132.892 -390.848 210 210 210 255
276.115 132.892 -386.972 210 210 210 255
276.115 132.892 -383.095 210 210 210 255
276.115 132.892 -379.217 210 210 210 255
276.115 132.892 -375.337 210 210 210 255
276.115 132.892 -371.456 210 210 210 255
276.115 132.892 -367.574 210 210 210 255
276.115 132.892 -363.691 210 210 210 255
276.115 132.892 -359.807 210 210 210 255
276.115 132.892 -355.921 210 210 210 255
276.115 132.892 -352.034 210 210 210 255
276.115 132.892 -348.147 210 210 210 255
276.115 132.892 -344.258 210 210 210 255
276.115 132.892 -340.368 210 210 210 255
276.115 132.892 -336.477 210 210 210 255
276.115 132.892 -332.585 210 210 210 255
276.115 132.892 -328.693 210 210 210 255
276.115 132.892 -324.799 210 210 210 255
276.115 132.892 -320.904 210 210 210 255
276.115 132.892 -317.009 210 210 210 255
276.115 132.892 -313.112 210 210 210 255
276.115 132.892 -309.215 210 210 210 255
276.115 132.892 -305.317 210 210 210 255
276.115 132.892 -301.418 210 210 210 255
276.115 132.892 -297.518 210 210 210 255
276.115 132.892 -293.618 210 210 210 255
276.115 132.892 -289.717 210 210 210 255
276.115 132.892 -285.815 210 210 210 255
276.115 132.892 -281.912 210 210 210 255
276.115 132.892 -278.009 210 210 210 255
276.115 132.892 -274.105 210 210 210 255
276.115 132.892 -270.2 210 210 210 255
276.115 132.892 -266.295 210 210 210 255
276.115 132.892 -262.389 210 210 210 255
276.115 132.892 -258.483 210 210 210 255
276.115 132.892 -254.575 210 210 210 255
276.115 132.892 -250.668 210 210 210 255
276.115 132.892 -246.759 210 210 210 255
276.115 132.892 -242.851 210 210 210 255
276.115 132.892 -238.942 210 210 210 255
276.115 132.892 -235.032 210 210 210 255
276.115 132.892 -231.122 210 210 210 255
276.115 132.892 -227.211 210 210 210 255
276.115 132.892 -223.3 210 210 210 255
276.115 132.892 -219.388 210 210 210 255
276.115 132.892 -215.476 210 210 210 255
276.115 132.892 -211.564 210 210 210 255
276.115 132.892 -207.651 210 210 210 255
276.115 132.892 -203.738 210 210 210 255
276.115 132.892 -199.824 210 210 210 255
276.115 132.892 -195.91 210 210 210 255
276.115 132.892 -191.996 210 210 210 255
276.115 132.892 -188.082 210 210 210 255
276.115 132.892 -184.167 210 210 210 255
276.115 132.892 -180.252 210 210 210 255
276.115 132.892 -176.336 210 210 210 255
276.115 132.892 -172.421 210 210 210 255
276.115 132.892 -168.505 210 210 210 255
276.115 132.892 -164.589 210 210 210 255
276.115 132.892 -160.672 210 210 210 255
276.115 132.892 -156.755 210 210 210 255
276.115 132.892 -152.839 210 210 210 255
276.115 132.892 -148.922 210 210 210 255
276.115 132.892 -145.004 210 210 210 255
276.115 132.892 -141.087 210 210 210 255
276.115 132.892 -137.169 210 210 210 255
276.115 132.892 -133.251 210 210 210 255
276.115 132.892 -129.333 210 210 210 255
276.115 132.892 -125.415 210 210 210 255
276.115 132.892 -121.497 210 210 210 255
276.115 132.892 -117.579 210 210 210 255
276.115 132.892 -113.66 210 210 210 255
276.115 132.892 -109.742 210 210 210 255
276.115 132.892 -105.823 210 210 210 255
276.115 132.892 -101.905 210 210 210 255
276.115 132.892 -97.9857 210 210 210 255
276.115 132.892 -94.0667 210 210 210 255
276.115 132.892 -90.1477 210 210 210 255
276.115 132.892 -86.2286 210 210 210 255
276.115 132.892 -82.3094 210 210 210 255
276.115 132.892 -78.3901 210 210 210 255
276.115 132.892 -74.4709 210 210 210 255
276.115 132.892 -70.5515 210 210 210 255
276.115 132.892 -66.6322 210 210 210 255
276.115 132.892 -62.713 210 210 210 255
276.115 132.892 -58.7935 210 210 210 255
276.115 132.892 -54.8739 210 210 210 255
276.115 132.892 -50.9545 210 210 210 255
276.115 132.892 -47.035 210 210 210 255
276.115 132.892 -43.1154 210 210 210 255
276.115 132.892 -39.1959 210 210 210 255
276.115 132.892 -35.2764 210 210 210 255
276.115 132.892 -31.3569 210 210 210 255
276.115 132.892 -27.4372 210 210 210 255
276.115 132.892 -23.5175 210 210 210 255
276.115 132.892 -19.5981 210 210 210 255
276.115 132.892 -15.6783 210 210 210 255
276.115 132.892 -11.7587 210 210 210 255
276.115 132.892 -7.83911 210 210 210 255
276.115 132.892 -3.91968 210 210 210 255
276.115 132.892 -6.10352e-05 210 210 210 255
276.089 127.913 -762.938 210 210 210 255
276.089 127.913 -759.358 210 210 210 255
276.089 127.913 -755.774 210 210 210 255
276.089 127.913 -752.185 210 210 210 255
276.089 127.913 -748.59 210 210 210 255
276.089 127.913 -744.991 210 210 210 255
276.089 127.913 -741.387 210 210 210 255
276.089 127.913 -737.777 210 210 210 255
276.089 127.913 -734.163 210 210 210 255
276.089 127.913 -730.545 210 210 210 255
276.089 127.913 -726.921 210 210 210 255
276.089 127.913 -723.293 210 210 210 255
276.089 127.913 -719.66 210 210 210 255
276.089 127.913 -716.023 210 210 210 255
276.089 127.913 -712.381 210 210 210 255
276.089 127.913 -708.735 210 210 210 255
276.089 127.913 -705.084 210 210 210 255
276.089 127.913 -701.429 210 210 210 255
276.089 127.913 -697.77 210 210 210 255
276.089 127.913 -694.106 210 210 210 255
276.089 127.913 -690.438 210 210 210 255
276.089 127.913 -686.766 210 210 210 255
276.089 127.913 -683.09 210 210 210 255
276.089 127.913 -679.41 210 210 210 255
276.089 127.913 -675.725 210 210 210 255
276.089 127.913 -672.037 210 210 210 255
276.089 127.913 -668.345 210 210 210 255
276.089 127.913 -664.648 210 210 210 255
276.089 127.913 -660.948 210 210 210 255
276.089 127.913 -657.245 210 210 210 255
276.089 127.913 -653.537 210 210 210 255
276.089 127.913 -649.826 210 210 210 255
276.089 127.913 -646.11 210 210 210 255
276.089 127.913 -642.392 210 210 210 255
276.089 127.913 -638.669 210 210 210 255
276.089 127.913 -634.944 210 210 210 255
276.089 127.913 -631.214 210 210 210 255
276.089 127.913 -627.481 210 210 210 255
276.089 127.913 -623.745 210 210 210 255
276.089 127.913 -620.005 210 210 210 255
276.089 127.913 -616.262 210 210 210 255
276.089 127.913 -612.516 210 210 210 255
276.089 127.913 -608.766 210 210 210 255
276.089 127.913 -605.014 210 210 210 255
276.089 127.913 -601.258 210 210 210 255
276.089 127.913 -597.499 210 210 210 255
276.089 127.913 -593.736 210 210 210 255
276.089 127.913 -589.971 210 210 210 255
276.089 127.913 -586.203 210 210 210 255
276.089 127.913 -582.432 210 210 210 255
276.089 127.913 -578.657 210 210 210 255
276.089 127.913 -574.88 210 210 210 255
276.089 127.913 -571.1 210 210 210 255
276.089 127.913 -567.318 210 210 210 255
276.089 127.913 -563.532 210 210 210 255
276.089 127.913 -559.744 210 210 210 255
276.089 127.913 -555.953 210 210 210 255
276.089 127.913 -552.159 210 210 210 255
276.089 127.913 -548.363 210 210 210 255
276.089 127.913 -544.564 210 210 210 255
276.089 127.913 -540.763 210 210 210 255
276.089 127.913 -536.959 210 210 210 255
276.089 127.913 -533.152 210 210 210 255
276.089 127.913 -529.343 210 210 210 255
276.089 127.913 -525.532 210 210 210 255
276.089 127.913 -521.718 210 210 210 255
276.089 127.913 -517.902 210 210 210 255
276.089 127.913 -514.084 210 210 210 255
276.089 127.913 -510.263 210 210 210 255
276.089 127.913 -506.44 210 210 210 255
276.089 127.913 -502.615 210 210 210 255
276.089 127.913 -498.788 210 210 210 255
276.089 127.913 -494.958 210 210 210 255
276.089 127.913 -491.127 210 210 210 255
276.089 127.913 -487.294 210 210 210 255
276.089 127.913 -483.458 210 210 210 255
276.089 127.913 -479.62 210 210 210 255
276.089 127.913 -475.781 210 210 210 255
276.089 127.913 -471.939 210 210 210 255
276.089 127.913 -468.096 210 210 210 255
276.089 127.913 -464.25 210 210 210 255
276.089 127.913 -460.403 210 210 210 255
276.089 127.913 -456.554 210 210 210 255
276.089 127.913 -452.703 210 210 210 255
276.089 127.913 -448.851 210 210 210 255
276.089 127.913 -444.997 210 210 210 255
276.089 127.913 -441.141 210 210 210 255
276.089 127.913 -437.283 210 210 210 255
276.089 127.913 -433.424 210 210 210 255
276.089 127.913 -429.563 210 210 210 255
276.089 127.913 -425.7 210 210 210 255
276.089 127.913 -421.836 210 210 210 255
276.089 127.913 -417.971 210 210 210 255
276.089 127.913 -414.104 210 210 210 255
276.089 127.913 -410.235 210 210 210 255
276.089 127.913 -406.365 210 210 210 255
276.089 127.913 -402.494 210 210 210 255
276.089 127.913 -398.621 210 210 210 255
276.089 127.913 -394.747 210 210 210 255
276.089 127.913 -390.872 210 210 210 255
276.089 127.913 -386.995 210 210 210 255
276.089 127.913 -383.117 210 210 210 255
276.089 127.913 -379.238 210 210 210 255
276.089 127.913 -375.357 210 210 210 255
276.089 127.913 -371.476 210 210 210 255
276.089 127.913 -367.593 210 210 210 255
276.089 127.913 -363.709 210 210 210 255
276.089 127.913 -359.824 210 210 210 255
276.089 127.913 -355.937 210 210 210 255
276.089 127.913 -352.05 210 210 210 255
276.089 127.913 -348.162 210 210 210 255
276.089 127.913 -344.272 210 210 210 255
276.089 127.913 -340.382 210 210 210 255
276.089 127.913 -336.49 210 210 210 255
276.089 127.913 -332.598 210 210 210 255
276.089 127.913 -328.705 210 210 210 255
276.089 127.913 -324.81 210 210 210 255
276.089 127.913 -320.915 210 210 210 255
276.089 127.913 -317.019 210 210 210 255
276.089 127.913 -313.122 210 210 210 255
276.089 127.913 -309.225 210 210 210 255
276.089 127.913 -305.326 210 210 210 255
276.089 127.913 -301.427 210 210 210 255
276.089 127.913 -297.526 210 210 210 255
276.089 127.913 -293.626 210 210 210 255
276.089 127.913 -289.724 210 210 210 255
276.089 127.913 -285.822 210 210 210 255
276.089 127.913 -281.919 210 210 210 255
276.089 127.913 -278.015 210 210 210 255
276.089 127.913 -274.111 210 210 210 255
276.089 127.913 -270.206 210 210 210 255
276.089 127.913 -266.3 210 210 210 255
276.089 127.913 -262.394 210 210 210 255
276.089 127.913 -258.487 210 210 210 255
276.089 127.913 -254.58 210 210 210 255
276.089 127.913 -250.672 210 210 210 255
276.089 127.913 -246.763 210 210 210 255
276.089 127.913 -242.854 210 210 210 255
276.089 127.913 -238.945 210 210 210 255
276.089 127.913 -235.035 210 210 210 255
276.089 127.913 -231.124 210 210 210 255
276.089 127.913 -227.214 210 210 210 255
276.089 127.913 -223.302 210 210 210 255
276.089 127.913 -219.391 210 210 210 255
276.089 127.913 -215.478 210 210 210 255
276.089 127.913 -211.566 210 210 210 255
276.089 127.913 -207.653 210 210 210 255
276.089 127.913 -203.74 210 210 210 255
276.089 127.913 -199.826 210 210 210 255
276.089 127.913 -195.912 210 210 210 255
276.089 127.913 -191.998 210 210 210 255
276.089 127.913 -188.083 210 210 210 255
276.089 127.913 -184.168 210 210 210 255
276.089 127.913 -180.253 210 210 210 255
276.089 127.913 -176.337 210 210 210 255
276.089 127.913 -172.422 210 210 210 255
276.089 127.913 -168.505 210 210 210 255
276.089 127.913 -164.589 210 210 210 255
276.089 127.913 -160.673 210 210 210 255
276.089 127.913 -156.756 210 210 210 255
276.089 127.913 -152.839 210 210 210 255
276.089 127.913 -148.922 210 210 210 255
276.089 127.913 -145.005 210 210 210 255
276.089 127.913 -141.087 210 210 210 255
276.089 127.913 -137.17 210 210 210 255
276.089 127.913 -133.252 210 210 210 255
276.089 127.913 -129.334 210 210 210 255
276.089 127.913 -125.416 210 210 210 255
276.089 127.913 -121.497 210 210 210 255
276.089 127.913 -117.579 210 210 210 255
276.089 127.913 -113.661 210 210 210 255
276.089 127.913 -109.742 210 210 210 255
276.089 127.913 -105.823 210 210 210 255
276.089 127.913 -101.905 210 210 210 255
276.089 127.913 -97.9857 210 210 210 255
276.089 127.913 -94.0667 210 210 210 255
276.089 127.913 -90.1477 210 210 210 255
276.089 127.913 -86.2286 210 210 210 255
276.089 127.913 -82.3095 210 210 210 255
276.089 127.913 -78.3903 210 210 210 255
276.089 127.913 -74.4711 210 210 210 255
276.089 127.913 -70.5516 210 210 210 255
276.089 127.913 -66.6323 210 210 210 255
276.089 127.913 -62.7128 210 210 210 255
276.089 127.913 -58.7933 210 210 210 255
276.089 127.913 -54.8739 210 210 210 255
276.089 127.913 -50.9543 210 210 210 255
276.089 127.913 -47.035 210 210 210 255
276.089 127.913 -43.1154 210 210 210 255
276.089 127.913 -39.1959 210 210 210 255
276.089 127.913 -35.2764 210 210 210 255
276.089 127.913 -31.3566 210 210 210 255
276.089 127.913 -27.4372 210 210 210 255
276.089 127.913 -23.5177 210 210 210 255
276.089 127.913 -19.598 210 210 210 255
276.089 127.913 -15.6783 210 210 210 255
276.089 127.913 -11.7589 210 210 210 255
276.089 127.913 -7.83923 210 210 210 255
276.089 127.913 -3.91962 210 210 210 255
276.089 127.913 0 210 210 210 255
276.063 123.063 -763.305 210 210 210 255
276.063 123.063 -759.719 210 210 210 255
276.063 123.063 -756.127 210 210 210 255
276.063 123.063 -752.531 210 210 210 255
276.063 123.063 -748.929 210 210 210 255
276.063 123.063 -745.323 210 210 210 255
276.063 123.063 -741.712 210 210 210 255
276.063 123.063 -738.096 210 210 210 255
276.063 123.063 -734.475 210 210 210 255
276.063 123.063 -730.85 210 210 210 255
276.063 123.063 -727.22 210 210 210 255
276.063 123.063 -723.586 210 210 210 255
276.063 123.063 -719.947 210 210 210 255
276.063 123.063 -716.304 210 210 210 255
276.063 123.063 -712.656 210 210 210 255
276.063 123.063 -709.004 210 210 210 255
276.063 123.063 -705.347 210 210 210 255
276.063 123.063 -701.686 210 210 210 255
276.063 123.063 -698.021 210 210 210 255
276.063 123.063 -694.352 210 210 210 255
276.063 123.063 -690.679 210 210 210 255
276.063 123.063 -687.002 210 210 210 255
276.063 123.063 -683.32 210 210 210 255
276.063 123.063 -679.635 210 210 210 255
276.063 123.063 -675.945 210 210 210 255
276.063 123.063 -672.252 210 210 210 255
276.063 123.063 -668.555 210 210 210 255
276.063 123.063 -664.854 210 210 210 255
276.063 123.063 -661.149 210 210 210 255
276.063 123.063 -657.44 210 210 210 255
276.063 123.063 -653.728 210 210 210 255
276.063 123.063 -650.012 210 210 210 255
276.063 123.063 -646.293 210 210 210 255
276.063 123.063 -642.57 210 210 210 255
276.063 123.063 -638.843 210 210 210 255
276.063 123.063 -635.113 210 210 210 255
276.063 123.063 -631.38 210 210 210 255
276.063 123.063 -627.643 210 210 210 255
276.063 123.063 -623.902 210 210 210 255
276.063 123.063 -620.159 210 210 210 255
276.063 123.063 -616.412 210 210 210 255
276.063 123.063 -612.662 210 210 210 255
276.063 123.063 -608.909 210 210 210 255
276.063 123.063 -605.152 210 210 210 255
276.063 123.063 -601.393 210 210 210 255
276.063 123.063 -597.63 210 210 210 255
276.063 123.063 -593.865 210 210 210 255
276.063 123.063 -590.096 210 210 210 255
276.063 123.063 -586.325 210 210 210 255
276.063 123.063 -582.55 210 210 210 255
276.063 123.063 -578.773 210 210 210 255
276.063 123.063 -574.993 210 210 210 255
276.063 123.063 -571.21 210 210 210 255
276.063 123.063 -567.424 210 210 210 255
276.063 123.063 -563.636 210 210 210 255
276.063 123.063 -559.845 210 210 210 255
276.063 123.063 -556.051 210 210 210 255
276.063 123.063 -552.255 210 210 210 255
276.063 123.063 -548.456 210 210 210 255
276.063 123.063 -544.654 210 210 210 255
276.063 123.063 -540.85 210 210 210 255
276.063 123.063 -537.044 210 210 210 255
276.063 123.063 -533.235 210 210 210 255
276.063 123.063 -529.423 210 210 210 255
276.063 123.063 -525.61 210 210 210 255
276.063 123.063 -521.794 210 210 210 255
276.063 123.063 -517.975 210 210 210 255
276.063 123.063 -514.155 210 210 210 255
276.063 123.063 -510.332 210 210 210 255
276.063 123.063 -506.507 210 210 210 255
276.063 123.063 -502.68 210 210 210 255
276.063 123.063 -498.851 210 210 210 255
276.063 123.063 -495.019 210 210 210 255
276.063 123.063 -491.186 210 210 210 255
276.063 123.063 -487.351 210 210 210 255
276.063 123.063 -483.513 210 210 210 255
276.063 123.063 -479.674 210 210 210 255
276.063 123.063 -475.833 210 210 210 255
276.063 123.063 -471.989 210 210 210 255
276.063 123.063 -468.144 210 210 210 255
276.063 123.063 -464.297 210 210 210 255
276.063 123.063 -460.449 210 210 210 255
276.063 123.063 -456.598 210 210 210 255
276.063 123.063 -452.746 210 210 210 255
276.063 123.063 -448.892 210 210 210 255
276.063 123.063 -445.036 210 210 210 255
276.063 123.063 -441.179 210 210 210 255
276.063 123.063 -437.32 210 210 210 255
276.063 123.063 -433.459 210 210 210 255
276.063 123.063 -429.597 210 210 210 255
276.063 123.063 -425.733 210 210 210 255
276.063 123.063 -421.868 210 210 210 255
276.063 123.063 -418.002 210 210 210 255
276.063 123.063 -414.133 210 210 210 255
276.063 123.063 -410.264 210 210 210 255
276.063 123.063 -406.393 210 210 210 255
276.063 123.063 -402.52 210 210 210 255
276.063 123.063 -398.647 210 210 210 255
276.063 123.063 -394.772 210 210 210 255
276.063 123.063 -390.895 210 210 210 255
276.063 123.063 -387.018 210 210 210 255
276.063 123.063 -383.139 210 210 210 255
276.063 123.063 -379.258 210 210 210 255
276.063 123.063 -375.377 210 210 210 255
276.063 123.063 -371.495 210 210 210 255
276.063 123.063 -367.611 210 210 210 255
276.063 123.063 -363.726 210 210 210 255
276.063 123.063 -359.84 210 210 210 255
276.063 123.063 -355.953 210 210 210 255
276.063 123.063 -352.065 210 210 210 255
276.063 123.063 -348.176 210 210 210 255
276.063 123.063 -344.286 210 210 210 255
276.063 123.063 -340.395 210 210 210 255
276.063 123.063 -336.503 210 210 210 255
276.063 123.063 -332.61 210 210 210 255
276.063 123.063 -328.716 210 210 210 255
276.063 123.063 -324.821 210 210 210 255
276.063 123.063 -320.926 210 210 210 255
276.063 123.063 -317.029 210 210 210 255
276.063 123.063 -313.132 210 210 210 255
276.063 123.063 -309.234 210 210 210 255
276.063 123.063 -305.334 210 210 210 255
276.063 123.063 -301.435 210 210 210 255
276.063 123.063 -297.534 210 210 210 255
276.063 123.063 -293.633 210 210 210 255
276.063 123.063 -289.731 210 210 210 255
276.063 123.063 -285.828 210 210 210 255
276.063 123.063 -281.925 210 210 210 255
276.063 123.063 -278.021 210 210 210 255
276.063 123.063 -274.116 210 210 210 255
276.063 123.063 -270.211 210 210 210 255
276.063 123.063 -266.305 210 210 210 255
276.063 123.063 -262.398 210 210 210 255
276.063 123.063 -258.491 210 210 210 255
276.063 123.063 -254.584 210 210 210 255
276.063 123.063 -250.676 210 210 210 255
276.063 123.063 -246.767 210 210 210 255
276.063 123.063 -242.858 210 210 210 255
276.063 123.063 -238.948 210 210 210 255
276.063 123.063 -235.038 210 210 210 255
276.063 123.063 -231.127 210 210 210 255
276.063 123.063 -227.216 210 210 210 255
276.063 123.063 -223.305 210 210 210 255
276.063 123.063 -219.393 210 210 210 255
276.063 123.063 -215.48 210 210 210 255
276.063 123.063 -211.568 210 210 210 255
276.063 123.063 -207.655 210 210 210 255
276.063 123.063 -203.741 210 210 210 255
276.063 123.063 -199.828 210 210 210 255
276.063 123.063 -195.913 210 210 210 255
276.063 123.063 -191.999 210 210 210 255
276.063 123.063 -188.084 210 210 210 255
276.063 123.063 -184.169 210 210 210 255
276.063 123.063 -180.254 210 210 210 255
276.063 123.063 -176.338 210 210 210 255
276.063 123.063 -172.423 210 210 210 255
276.063 123.063 -168.506 210 210 210 255
276.063 123.063 -164.59 210 210 210 255
276.063 123.063 -160.674 210 210 210 255
276.063 123.063 -156.757 210 210 210 255
276.063 123.063 -152.84 210 210 210 255
276.063 123.063 -148.923 210 210 210 255
276.063 123.063 -145.005 210 210 210 255
276.063 123.063 -141.088 210 210 210 255
276.063 123.063 -137.17 210 210 210 255
276.063 123.063 -133.252 210 210 210 255
276.063 123.063 -129.334 210 210 210 255
276.063 123.063 -125.416 210 210 210 255
276.063 123.063 -121.498 210 210 210 255
276.063 123.063 -117.579 210 210 210 255
276.063 123.063 -113.661 210 210 210 255
276.063 123.063 -109.742 210 210 210 255
276.063 123.063 -105.823 210 210 210 255
276.063 123.063 -101.905 210 210 210 255
276.063 123.063 -97.9859 210 210 210 255
276.063 123.063 -94.0668 210 210 210 255
276.063 123.063 -90.1477 210 210 210 255
276.063 123.063 -86.2288 210 210 210 255
276.063 123.063 -82.3094 210 210 210 255
276.063 123.063 -78.3902 210 210 210 255
276.063 123.063 -74.4709 210 210 210 255
276.063 123.063 -70.5518 210 210 210 255
276.063 123.063 -66.6323 210 210 210 255
276.063 123.063 -62.7128 210 210 210 255
276.063 123.063 -58.7933 210 210 210 255
276.063 123.063 -54.8739 210 210 210 255
276.063 123.063 -50.9545 210 210 210 255
276.063 123.063 -47.0349 210 210 210 255
276.063 123.063 -43.1154 210 210 210 255
276.063 123.063 -39.1959 210 210 210 255
276.063 123.063 -35.2764 210 210 210 255
276.063 123.063 -31.3566 210 210 210 255
276.063 123.063 -27.4372 210 210 210 255
276.063 123.063 -23.5175 210 210 210 255
276.063 123.063 -19.598 210 210 210 255
276.063 123.063 -15.6784 210 210 210 255
276.063 123.063 -11.7587 210 210 210 255
276.063 123.063 -7.83923 210 210 210 255
276.063 123.063 -3.91962 210 210 210 255
276.063 123.063 0 210 210 210 255
276.038 118.339 -763.667 210 210 210 255
276.038 118.339 -760.073 210 210 210 255
276.038 118.339 -756.474 210 210 210 255
276.038 118.339 -752.871 210 210 210 255
276.038 118.339 -749.262 210 210 210 255
276.038 118.339 -745.649 210 210 210 255
276.038 118.339 -742.032 210 210 210 255
276.038 118.339 -738.409 210 210 210 255
276.038 118.339 -734.782 210 210 210 255
276.038 118.339 -731.151 210 210 210 255
276.038 118.339 -727.515 210 210 210 255
276.038 118.339 -723.874 210 210 210 255
276.038 118.339 -720.229 210 210 210 255
276.038 118.339 -716.58 210 210 210 255
276.038 118.339 -712.926 210 210 210 255
276.038 118.339 -709.268 210 210 210 255
276.038 118.339 -705.606 210 210 210 255
276.038 118.339 -701.939 210 210 210 255
276.038 118.339 -698.269 210 210 210 255
276.038 118.339 -694.594 210 210 210 255
276.038 118.339 -690.916 210 210 210 255
276.038 118.339 -687.233 210 210 210 255
276.038 118.339 -683.546 210 210 210 255
276.038 118.339 -679.856 210 210 210 255
276.038 118.339 -676.161 210 210 210 255
276.038 118.339 -672.463 210 210 210 255
276.038 118.339 -668.761 210 210 210 255
276.038 118.339 -665.055 210 210 210 255
276.038 118.339 -661.346 210 210 210 255
276.038 118.339 -657.633 210 210 210 255
276.038 118.339 -653.916 210 210 210 255
276.038 118.339 -650.196 210 210 210 255
276.038 118.339 -646.472 210 210 210 255
276.038 118.339 -642.745 210 210 210 255
276.038 118.339 -639.014 210 210 210 255
276.038 118.339 -635.28 210 210 210 255
276.038 118.339 -631.542 210 210 210 255
276.038 118.339 -627.802 210 210 210 255
276.038 118.339 -624.057 210 210 210 255
276.038 118.339 -620.31 210 210 210 255
276.038 118.339 -616.56 210 210 210 255
276.038 118.339 -612.806 210 210 210 255
276.038 118.339 -609.049 210 210 210 255
276.038 118.339 -605.289 210 210 210 255
276.038 118.339 -601.526 210 210 210 255
276.038 118.339 -597.76 210 210 210 255
276.038 118.339 -593.991 210 210 210 255
276.038 118.339 -590.219 210 210 210 255
276.038 118.339 -586.445 210 210 210 255
276.038 118.339 -582.667 210 210 210 255
276.038 118.339 -578.887 210 210 210 255
276.038 118.339 -575.104 210 210 210 255
276.038 118.339 -571.318 210 210 210 255
276.038 118.339 -567.529 210 210 210 255
276.038 118.339 -563.738 210 210 210 255
276.038 118.339 -559.944 210 210 210 255
276.038 118.339 -556.147 210 210 210 255
276.038 118.339 -552.348 210 210 210 255
276.038 118.339 -548.547 210 210 210 255
276.038 118.339 -544.743 210 210 210 255
276.038 118.339 -540.936 210 210 210 255
276.038 118.339 -537.127 210 210 210 255
276.038 118.339 -533.316 210 210 210 255
276.038 118.339 -529.502 210 210 210 255
276.038 118.339 -525.686 210 210 210 255
276.038 118.339 -521.868 210 210 210 255
276.038 118.339 -518.048 210 210 210 255
276.038 118.339 -514.225 210 210 210 255
276.038 118.339 -510.4 210 210 210 255
276.038 118.339 -506.573 210 210 210 255
276.038 118.339 -502.744 210 210 210 255
276.038 118.339 -498.913 210 210 210 255
276.038 118.339 -495.08 210 210 210 255
276.038 118.339 -491.244 210 210 210 255
276.038 118.339 -487.407 210 210 210 255
276.038 118.339 -483.568 210 210 210 255
276.038 118.339 -479.727 210 210 210 255
276.038 118.339 -475.884 210 210 210 255
276.038 118.339 -472.039 210 210 210 255
276.038 118.339 -468.192 210 210 210 255
276.038 118.339 -464.344 210 210 210 255
276.038 118.339 -460.493 210 210 210 255
276.038 118.339 -456.641 210 210 210 255
276.038 118.339 -452.788 210 210 210 255
276.038 118.339 -448.932 210 210 210 255
276.038 118.339 -445.075 210 210 210 255
276.038 118.339 -441.216 210 210 210 255
276.038 118.339 -437.356 210 210 210 255
276.038 118.339 -433.494 210 210 210 255
276.038 118.339 -429.631 210 210 210 255
276.038 118.339 -425.766 210 210 210 255
276.038 118.339 -421.9 210 210 210 255
276.038 118.339 -418.032 210 210 210 255
276.038 118.339 -414.162 210 210 210 255
276.038 118.339 -410.292 210 210 210 255
276.038 118.339 -406.42 210 210 210 255
276.038 118.339 -402.546 210 210 210 255
276.038 118.339 -398.672 210 210 210 255
276.038 118.339 -394.796 210 210 210 255
276.038 118.339 -390.918 210 210 210 255
276.038 118.339 -387.04 210 210 210 255
276.038 118.339 -383.16 210 210 210 255
276.038 118.339 -379.279 210 210 210 255
276.038 118.339 -375.397 210 210 210 255
276.038 118.339 -371.513 210 210 210 255
276.038 118.339 -367.629 210 210 210 255
276.038 118.339 -363.743 210 210 210 255
276.038 118.339 -359.857 210 210 210 255
276.038 118.339 -355.969 210 210 210 255
276.038 118.339 -352.081 210 210 210 255
276.038 118.339 -348.191 210 210 210 255
276.038 118.339 -344.3 210 210 210 255
276.038 118.339 -340.408 210 210 210 255
276.038 118.339 -336.516 210 210 210 255
276.038 118.339 -332.622 210 210 210 255
276.038 118.339 -328.728 210 210 210 255
276.038 118.339 -324.832 210 210 210 255
276.038 118.339 -320.936 210 210 210 255
276.038 118.339 -317.039 210 210 210 255
276.038 118.339 -313.141 210 210 210 255
276.038 118.339 -309.243 210 210 210 255
276.038 118.339 -305.343 210 210 210 255
276.038 118.339 -301.443 210 210 210 255
276.038 118.339 -297.542 210 210 210 255
276.038 118.339 -293.64 210 210 210 255
276.038 118.339 -289.738 210 210 210 255
276.038 118.339 -285.835 210 210 210 255
276.038 118.339 -281.931 210 210 210 255
276.038 118.339 -278.027 210 210 210 255
276.038 118.339 -274.122 210 210 210 255
276.038 118.339 -270.216 210 210 210 255
276.038 118.339 -266.31 210 210 210 255
276.038 118.339 -262.403 210 210 210 255
276.038 118.339 -258.496 210 210 210 255
276.038 118.339 -254.588 210 210 210 255
276.038 118.339 -250.679 210 210 210 255
276.038 118.339 -246.771 210 210 210 255
276.038 118.339 -242.861 210 210 210 255
276.038 118.339 -238.951 210 210 210 255
276.038 118.339 -235.041 210 210 210 255
276.038 118.339 -231.13 210 210 210 255
276.038 118.339 -227.219 210 210 210 255
276.038 118.339 -223.307 210 210 210 255
276.038 118.339 -219.395 210 210 210 255
276.038 118.339 -215.483 210 210 210 255
276.038 118.339 -211.57 210 210 210 255
276.038 118.339 -207.656 210 210 210 255
276.038 118.339 -203.743 210 210 210 255
276.038 118.339 -199.829 210 210 210 255
276.038 118.339 -195.915 210 210 210 255
276.038 118.339 -192 210 210 210 255
276.038 118.339 -188.085 210 210 210 255
276.038 118.339 -184.17 210 210 210 255
276.038 118.339 -180.255 210 210 210 255
276.038 118.339 -176.339 210 210 210 255
276.038 118.339 -172.423 210 210 210 255
276.038 118.339 -168.507 210 210 210 255
276.038 118.339 -164.591 210 210 210 255
276.038 118.339 -160.674 210 210 210 255
276.038 118.339 -156.757 210 210 210 255
276.038 118.339 -152.84 210 210 210 255
276.038 118.339 -148.923 210 210 210 255
276.038 118.339 -145.006 210 210 210 255
276.038 118.339 -141.088 210 210 210 255
276.038 118.339 -137.17 210 210 210 255
276.038 118.339 -133.252 210 210 210 255
276.038 118.339 -129.334 210 210 210 255
276.038 118.339 -125.416 210 210 210 255
276.038 118.339 -121.498 210 210 210 255
276.038 118.339 -117.579 210 210 210 255
276.038 118.339 -113.661 210 210 210 255
276.038 118.339 -109.742 210 210 210 255
276.038 118.339 -105.824 210 210 210 255
276.038 118.339 -101.905 210 210 210 255
276.038 118.339 -97.9858 210 210 210 255
276.038 118.339 -94.0669 210 210 210 255
276.038 118.339 -90.1479 210 210 210 255
276.038 118.339 -86.2288 210 210 210 255
276.038 118.339 -82.3096 210 210 210 255
276.038 118.339 -78.3903 210 210 210 255
276.038 118.339 -74.4709 210 210 210 255
276.038 118.339 -70.5517 210 210 210 255
276.038 118.339 -66.6324 210 210 210 255
276.038 118.339 -62.713 210 210 210 255
276.038 118.339 -58.7935 210 210 210 255
276.038 118.339 -54.8738 210 210 210 255
276.038 118.339 -50.9545 210 210 210 255
276.038 118.339 -47.0349 210 210 210 255
276.038 118.339 -43.1154 210 210 210 255
276.038 118.339 -39.1959 210 210 210 255
276.038 118.339 -35.2765 210 210 210 255
276.038 118.339 -31.3568 210 210 210 255
276.038 118.339 -27.4373 210 210 210 255
276.038 118.339 -23.5176 210 210 210 255
276.038 118.339 -19.5981 210 210 210 255
276.038 118.339 -15.6784 210 210 210 255
276.038 118.339 -11.7587 210 210 210 255
276.038 118.339 -7.83929 210 210 210 255
276.038 118.339 -3.91962 210 210 210 255
276.038 118.339 0 210 210 210 255
276.014 113.741 -764.023 210 210 210 255
276.014 113.741 -760.422 210 210 210 255
276.014 113.741 -756.816 210 210 210 255
276.014 113.741 -753.206 210 210 210 255
276.014 113.741 -749.591 210 210 210 255
276.014 113.741 -745.971 210 210 210 255
276.014 113.741 -742.346 210 210 210 255
276.014 113.741 -738.718 210 210 210 255
276.014 113.741 -735.084 210 210 210 255
276.014 113.741 -731.446 210 210 210 255
276.014 113.741 -727.804 210 210 210 255
276.014 113.741 -724.157 210 210 210 255
276.014 113.741 -720.506 210 210 210 255
276.014 113.741 -716.851 210 210 210 255
276.014 113.741 -713.192 210 210 210 255
276.014 113.741 -709.528 210 210 210 255
276.014 113.741 -705.86 210 210 210 255
276.014 113.741 -702.188 210 210 210 255
276.014 113.741 -698.512 210 210 210 255
276.014 113.741 -694.833 210 210 210 255
276.014 113.741 -691.149 210 210 210 255
276.014 113.741 -687.461 210 210 210 255
276.014 113.741 -683.769 210 210 210 255
276.014 113.741 -680.073 210 210 210 255
276.014 113.741 -676.374 210 210 210 255
276.014 113.741 -672.671 210 210 210 255
276.014 113.741 -668.964 210 210 210 255
276.014 113.741 -665.254 210 210 210 255
276.014 113.741 -661.54 210 210 210 255
276.014 113.741 -657.822 210 210 210 255
276.014 113.741 -654.101 210 210 210 255
276.014 113.741 -650.377 210 210 210 255
276.014 113.741 -646.649 210 210 210 255
276.014 113.741 -642.917 210 210 210 255
276.014 113.741 -639.182 210 210 210 255
276.014 113.741 -635.444 210 210 210 255
276.014 113.741 -631.703 210 210 210 255
276.014 113.741 -627.958 210 210 210 255
276.014 113.741 -624.21 210 210 210 255
276.014 113.741 -620.459 210 210 210 255
276.014 113.741 -616.705 210 210 210 255
276.014 113.741 -612.947 210 210 210 255
276.014 113.741 -609.187 210 210 210 255
276.014 113.741 -605.423 210 210 210 255
276.014 113.741 -601.657 210 210 210 255
276.014 113.741 -597.888 210 210 210 255
276.014 113.741 -594.116 210 210 210 255
276.014 113.741 -590.34 210 210 210 255
276.014 113.741 -586.563 210 210 210 255
276.014 113.741 -582.782 210 210 210 255
276.014 113.741 -578.999 210 210 210 255
276.014 113.741 -575.212 210 210 210 255
276.014 113.741 -571.424 210 210 210 255
276.014 113.741 -567.632 210 210 210 255
276.014 113.741 -563.838 210 210 210 255
276.014 113.741 -560.041 210 210 210 255
276.014 113.741 -556.242 210 210 210 255
276.014 113.741 -552.441 210 210 210 255
276.014 113.741 -548.636 210 210 210 255
276.014 113.741 -544.83 210 210 210 255
276.014 113.741 -541.021 210 210 210 255
276.014 113.741 -537.21 210 210 210 255
276.014 113.741 -533.396 210 210 210 255
276.014 113.741 -529.58 210 210 210 255
276.014 113.741 -525.762 210 210 210 255
276.014 113.741 -521.941 210 210 210 255
276.014 113.741 -518.119 210 210 210 255
276.014 113.741 -514.294 210 210 210 255
276.014 113.741 -510.467 210 210 210 255
276.014 113.741 -506.638 210 210 210 255
276.014 113.741 -502.807 210 210 210 255
276.014 113.741 -498.974 210 210 210 255
276.014 113.741 -495.139 210 210 210 255
276.014 113.741 -491.301 210 210 210 255
276.014 113.741 -487.462 210 210 210 255
276.014 113.741 -483.621 210 210 210 255
276.014 113.741 -479.779 210 210 210 255
276.014 113.741 -475.934 210 210 210 255
276.014 113.741 -472.087 210 210 210 255
276.014 113.741 -468.239 210 210 210 255
276.014 113.741 -464.389 210 210 210 255
276.014 113.741 -460.537 210 210 210 255
276.014 113.741 -456.684 210 210 210 255
276.014 113.741 -452.829 210 210 210 255
276.014 113.741 -448.972 210 210 210 255
276.014 113.741 -445.114 210 210 210 255
276.014 113.741 -441.254 210 210 210 255
276.014 113.741 -437.392 210 210 210 255
276.014 113.741 -433.529 210 210 210 255
276.014 113.741 -429.664 210 210 210 255
276.014 113.741 -425.798 210 210 210 255
276.014 113.741 -421.93 210 210 210 255
276.014 113.741 -418.061 210 210 210 255
276.014 113.741 -414.191 210 210 210 255
276.014 113.741 -410.32 210 210 210 255
276.014 113.741 -406.446 210 210 210 255
276.014 113.741 -402.572 210 210 210 255
276.014 113.741 -398.696 210 210 210 255
276.014 113.741 -394.819 210 210 210 255
276.014 113.741 -390.941 210 210 210 255
276.014 113.741 -387.062 210 210 210 255
276.014 113.741 -383.181 210 210 210 255
276.014 113.741 -379.299 210 210 210 255
276.014 113.741 -375.416 210 210 210 255
276.014 113.741 -371.532 210 210 210 255
276.014 113.741 -367.647 210 210 210 255
276.014 113.741 -363.761 210 210 210 255
276.014 113.741 -359.873 210 210 210 255
276.014 113.741 -355.985 210 210 210 255
276.014 113.741 -352.095 210 210 210 255
276.014 113.741 -348.205 210 210 210 255
276.014 113.741 -344.313 210 210 210 255
276.014 113.741 -340.421 210 210 210 255
276.014 113.741 -336.528 210 210 210 255
276.014 113.741 -332.634 210 210 210 255
276.014 113.741 -328.739 210 210 210 255
276.014 113.741 -324.843 210 210 210 255
276.014 113.741 -320.946 210 210 210 255
276.014 113.741 -317.049 210 210 210 255
276.014 113.741 -313.151 210 210 210 255
276.014 113.741 -309.251 210 210 210 255
276.014 113.741 -305.352 210 210 210 255
276.014 113.741 -301.451 210 210 210 255
276.014 113.741 -297.549 210 210 210 255
276.014 113.741 -293.647 210 210 210 255
276.014 113.741 -289.745 210 210 210 255
276.014 113.741 -285.841 210 210 210 255
276.014 113.741 -281.937 210 210 210 255
276.014 113.741 -278.033 210 210 210 255
276.014 113.741 -274.127 210 210 210 255
276.014 113.741 -270.221 210 210 210 255
276.014 113.741 -266.315 210 210 210 255
276.014 113.741 -262.408 210 210 210 255
276.014 113.741 -258.5 210 210 210 255
276.014 113.741 -254.592 210 210 210 255
276.014 113.741 -250.683 210 210 210 255
276.014 113.741 -246.774 210 210 210 255
276.014 113.741 -242.864 210 210 210 255
276.014 113.741 -238.954 210 210 210 255
276.014 113.741 -235.044 210 210 210 255
276.014 113.741 -231.133 210 210 210 255
276.014 113.741 -227.221 210 210 210 255
276.014 113.741 -223.31 210 210 210 255
276.014 113.741 -219.397 210 210 210 255
276.014 113.741 -215.485 210 210 210 255
276.014 113.741 -211.572 210 210 210 255
276.014 113.741 -207.658 210 210 210 255
276.014 113.741 -203.745 210 210 210 255
276.014 113.741 -199.831 210 210 210 255
276.014 113.741 -195.916 210 210 210 255
276.014 113.741 -192.002 210 210 210 255
276.014 113.741 -188.087 210 210 210 255
276.014 113.741 -184.171 210 210 210 255
276.014 113.741 -180.256 210 210 210 255
276.014 113.741 -176.34 210 210 210 255
276.014 113.741 -172.424 210 210 210 255
276.014 113.741 -168.508 210 210 210 255
276.014 113.741 -164.591 210 210 210 255
276.014 113.741 -160.675 210 210 210 255
276.014 113.741 -156.758 210 210 210 255
276.014 113.741 -152.841 210 210 210 255
276.014 113.741 -148.923 210 210 210 255
276.014 113.741 -145.006 210 210 210 255
276.014 113.741 -141.088 210 210 210 255
276.014 113.741 -137.171 210 210 210 255
276.014 113.741 -133.253 210 210 210 255
276.014 113.741 -129.335 210 210 210 255
276.014 113.741 -125.417 210 210 210 255
276.014 113.741 -121.498 210 210 210 255
276.014 113.741 -117.58 210 210 210 255
276.014 113.741 -113.661 210 210 210 255
276.014 113.741 -109.742 210 210 210 255
276.014 113.741 -105.824 210 210 210 255
276.014 113.741 -101.905 210 210 210 255
276.014 113.741 -97.9861 210 210 210 255
276.014 113.741 -94.0671 210 210 210 255
276.014 113.741 -90.1479 210 210 210 255
276.014 113.741 -86.2287 210 210 210 255
276.014 113.741 -82.3094 210 210 210 255
276.014 113.741 -78.3903 210 210 210 255
276.014 113.741 -74.4711 210 210 210 255
276.014 113.741 -70.5517 210 210 210 255
276.014 113.741 -66.6325 210 210 210 255
276.014 113.741 -62.7128 210 210 210 255
276.014 113.741 -58.7935 210 210 210 255
276.014 113.741 -54.8739 210 210 210 255
276.014 113.741 -50.9544 210 210 210 255
276.014 113.741 -47.0351 210 210 210 255
276.014 113.741 -43.1155 210 210 210 255
276.014 113.741 -39.1959 210 210 210 255
276.014 113.741 -35.2764 210 210 210 255
276.014 113.741 -31.3567 210 210 210 255
276.014 113.741 -27.4371 210 210 210 255
276.014 113.741 -23.5176 210 210 210 255
276.014 113.741 -19.598 210 210 210 255
276.014 113.741 -15.6785 210 210 210 255
276.014 113.741 -11.7588 210 210 210 255
276.014 113.741 -7.83911 210 210 210 255
276.014 113.741 -3.91962 210 210 210 255
276.014 113.741 -6.10352e-05 210 210 210 255
275.989 109.266 -764.373 210 210 210 255
275.989 109.266 -760.765 210 210 210 255
275.989 109.266 -757.152 210 210 210 255
275.989 109.266 -753.535 210 210 210 255
275.989 109.266 -749.913 210 210 210 255
275.989 109.266 -746.287 210 210 210 255
275.989 109.266 -742.656 210 210 210 255
275.989 109.266 -739.021 210 210 210 255
275.989 109.266 -735.381 210 210 210 255
275.989 109.266 -731.737 210 210 210 255
275.989 109.266 -728.089 210 210 210 255
275.989 109.266 -724.436 210 210 210 255
275.989 109.266 -720.779 210 210 210 255
275.989 109.266 -717.118 210 210 210 255
275.989 109.266 -713.453 210 210 210 255
275.989 109.266 -709.784 210 210 210 255
275.989 109.266 -706.111 210 210 210 255
275.989 109.266 -702.433 210 210 210 255
275.989 109.266 -698.752 210 210 210 255
275.989 109.266 -695.067 210 210 210 255
275.989 109.266 -691.378 210 210 210 255
275.989 109.266 -687.685 210 210 210 255
275.989 109.266 -683.988 210 210 210 255
275.989 109.266 -680.288 210 210 210 255
275.989 109.266 -676.584 210 210 210 255
275.989 109.266 -672.876 210 210 210 255
275.989 109.266 -669.164 210 210 210 255
275.989 109.266 -665.449 210 210 210 255
275.989 109.266 -661.731 210 210 210 255
275.989 109.266 -658.009 210 210 210 255
275.989 109.266 -654.283 210 210 210 255
275.989 109.266 -650.555 210 210 210 255
275.989 109.266 -646.822 210 210 210 255
275.989 109.266 -643.087 210 210 210 255
275.989 109.266 -639.348 210 210 210 255
275.989 109.266 -635.606 210 210 210 255
275.989 109.266 -631.86 210 210 210 255
275.989 109.266 -628.112 210 210 210 255
275.989 109.266 -624.36 210 210 210 255
275.989 109.266 -620.605 210 210 210 255
275.989 109.266 -616.847 210 210 210 255
275.989 109.266 -613.086 210 210 210 255
275.989 109.266 -609.322 210 210 210 255
275.989 109.266 -605.556 210 210 210 255
275.989 109.266 -601.786 210 210 210 255
275.989 109.266 -598.013 210 210 210 255
275.989 109.266 -594.238 210 210 210 255
275.989 109.266 -590.46 210 210 210 255
275.989 109.266 -586.679 210 210 210 255
275.989 109.266 -582.895 210 210 210 255
275.989 109.266 -579.109 210 210 210 255
275.989 109.266 -575.319 210 210 210 255
275.989 109.266 -571.528 210 210 210 255
275.989 109.266 -567.734 210 210 210 255
275.989 109.266 -563.937 210 210 210 255
275.989 109.266 -560.137 210 210 210 255
275.989 109.266 -556.336 210 210 210 255
275.989 109.266 -552.531 210 210 210 255
275.989 109.266 -548.725 210 210 210 255
275.989 109.266 -544.916 210 210 210 255
275.989 109.266 -541.104 210 210 210 255
275.989 109.266 -537.291 210 210 210 255
275.989 109.266 -533.474 210 210 210 255
275.989 109.266 -529.656 210 210 210 255
275.989 109.266 -525.836 210 210 210 255
275.989 109.266 -522.013 210 210 210 255
275.989 109.266 -518.188 210 210 210 255
275.989 109.266 -514.362 210 210 210 255
275.989 109.266 -510.533 210 210 210 255
275.989 109.266 -506.702 210 210 210 255
275.989 109.266 -502.869 210 210 210 255
275.989 109.266 -499.034 210 210 210 255
275.989 109.266 -495.197 210 210 210 255
275.989 109.266 -491.358 210 210 210 255
275.989 109.266 -487.517 210 210 210 255
275.989 109.266 -483.674 210 210 210 255
275.989 109.266 -479.83 210 210 210 255
275.989 109.266 -475.983 210 210 210 255
275.989 109.266 -472.135 210 210 210 255
275.989 109.266 -468.285 210 210 210 255
275.989 109.266 -464.434 210 210 210 255
275.989 109.266 -460.581 210 210 210 255
275.989 109.266 -456.726 210 210 210 255
275.989 109.266 -452.869 210 210 210 255
275.989 109.266 -449.011 210 210 210 255
275.989 109.266 -445.151 210 210 210 255
275.989 109.266 -441.29 210 210 210 255
275.989 109.266 -437.427 210 210 210 255
275.989 109.266 -433.563 210 210 210 255
275.989 109.266 -429.697 210 210 210 255
275.989 109.266 -425.829 210 210 210 255
275.989 109.266 -421.961 210 210 210 255
275.989 109.266 -418.091 210 210 210 255
275.989 109.266 -414.219 210 210 210 255
275.989 109.266 -410.346 210 210 210 255
275.989 109.266 -406.472 210 210 210 255
275.989 109.266 -402.597 210 210 210 255
275.989 109.266 -398.72 210 210 210 255
275.989 109.266 -394.842 210 210 210 255
275.989 109.266 -390.963 210 210 210 255
275.989 109.266 -387.083 210 210 210 255
275.989 109.266 -383.201 210 210 210 255
275.989 109.266 -379.319 210 210 210 255
275.989 109.266 -375.435 210 210 210 255
275.989 109.266 -371.55 210 210 210 255
275.989 109.266 -367.664 210 210 210 255
275.989 109.266 -363.777 210 210 210 255
275.989 109.266 -359.889 210 210 210 255
275.989 109.266 -356 210 210 210 255
275.989 109.266 -352.11 210 210 210 255
275.989 109.266 -348.219 210 210 210 255
275.989 109.266 -344.327 210 210 210 255
275.989 109.266 -340.434 210 210 210 255
275.989 109.266 -336.54 210 210 210 255
275.989 109.266 -332.645 210 210 210 255
275.989 109.266 -328.75 210 210 210 255
275.989 109.266 -324.854 210 210 210 255
275.989 109.266 -320.957 210 210 210 255
275.989 109.266 -317.058 210 210 210 255
275.989 109.266 -313.16 210 210 210 255
275.989 109.266 -309.26 210 210 210 255
