ply
format ascii 1.0
element vertex 1177
property float x
property float y
property float z
property uchar red
property uchar green
property uchar blue
property uchar alpha
end_header
407.373 -0.891418 -229.6 210 210 210 255
407.373 -0.891418 -225.683 210 210 210 255
407.373 -0.891418 -221.766 210 210 210 255
407.373 -0.891418 -217.85 210 210 210 255
407.373 -0.891418 -213.934 210 210 210 255
407.373 -0.891418 -210.018 210 210 210 255
407.373 -0.891418 -206.102 210 210 210 255
407.373 -0.891418 -202.187 210 210 210 255
407.373 -0.891418 -198.272 210 210 210 255
407.373 -0.891418 -194.358 210 210 210 255
407.373 -0.891418 -190.444 210 210 210 255
407.373 -0.891418 -186.531 210 210 210 255
407.373 -0.891418 -182.618 210 210 210 255
407.373 -0.891418 -178.706 210 210 210 255
407.373 -0.891418 -174.794 210 210 210 255
407.373 -0.891418 -170.883 210 210 210 255
407.373 -0.891418 -166.973 210 210 210 255
407.373 -0.891418 -163.064 210 210 210 255
407.373 -0.891418 -159.155 210 210 210 255
407.373 -0.891418 -155.247 210 210 210 255
407.373 -0.891418 -151.34 210 210 210 255
407.373 -0.891418 -147.434 210 210 210 255
407.373 -0.891418 -143.529 210 210 210 255
407.373 -0.891418 -139.625 210 210 210 255
407.373 -0.891418 -135.722 210 210 210 255
407.373 -0.891418 -131.819 210 210 210 255
407.373 -0.891418 -127.918 210 210 210 255
407.373 -0.891418 -124.018 210 210 210 255
407.373 -0.891418 -120.119 210 210 210 255
407.373 -0.891418 -116.221 210 210 210 255
407.373 -0.891418 -112.325 210 210 210 255
407.373 -0.891418 -108.429 210 210 210 255
407.373 -0.891418 -104.535 210 210 210 255
407.373 -0.891418 -100.642 210 210 210 255
407.373 -0.891418 -96.7509 210 210 210 255
407.373 -0.891418 -92.8608 210 210 210 255
407.373 -0.891418 -88.9721 210 210 210 255
407.373 -0.891418 -85.0848 210 210 210 255
407.373 -0.891418 -81.1992 210 210 210 255
407.373 -0.891418 -77.3149 210 210 210 255
407.373 -0.891418 -73.4321 210 210 210 255
407.373 -0.891418 -69.551 210 210 210 255
407.373 -0.891418 -65.6714 210 210 210 255
407.373 -0.891418 -61.7938 210 210 210 255
407.373 -0.891418 -57.9175 210 210 210 255
407.373 -0.891418 -54.043 210 210 210 255
407.373 -0.891418 -50.1703 210 210 210 255
407.373 -0.891418 -46.2994 210 210 210 255
407.373 -0.891418 -42.4303 210 210 210 255
407.373 -0.891418 -38.563 210 210 210 255
407.373 -0.891418 -34.6976 210 210 210 255
407.373 -0.891418 -30.8342 210 210 210 255
407.373 -0.891418 -26.9727 210 210 210 255
407.373 -0.891418 -23.1132 210 210 210 255
407.373 -0.891418 -19.2558 210 210 210 255
407.373 -0.891418 -15.4003 210 210 210 255
407.373 -0.891418 -11.5471 210 210 210 255
407.373 -0.891418 -7.69592 210 210 210 255
407.373 -0.891418 -3.8468 210 210 210 255
407.373 -0.891418 0 210 210 210 255
407.343 2.57526 -762.074 210 210 210 255
407.343 2.57526 -758.512 210 210 210 255
407.343 2.57526 -754.945 210 210 210 255
407.343 2.57526 -751.372 210 210 210 255
407.343 2.57526 -747.794 210 210 210 255
407.343 2.57526 -744.211 210 210 210 255
407.343 2.57526 -740.622 210 210 210 255
407.343 2.57526 -737.029 210 210 210 255
407.343 2.57526 -733.43 210 210 210 255
407.343 2.57526 -729.826 210 210 210 255
407.343 2.57526 -726.217 210 210 210 255
407.343 2.57526 -722.603 210 210 210 255
407.343 2.57526 -718.984 210 210 210 255
407.343 2.57526 -715.361 210 210 210 255
407.343 2.57526 -711.732 210 210 210 255
407.343 2.57526 -708.098 210 210 210 255
407.343 2.57526 -704.46 210 210 210 255
407.343 2.57526 -700.817 210 210 210 255
407.343 2.57526 -697.17 210 210 210 255
407.343 2.57526 -693.517 210 210 210 255
407.343 2.57526 -689.86 210 210 210 255
407.343 2.57526 -686.199 210 210 210 255
407.343 2.57526 -682.533 210 210 210 255
407.343 2.57526 -678.862 210 210 210 255
407.343 2.57526 -675.187 210 210 210 255
407.343 2.57526 -671.508 210 210 210 255
407.343 2.57526 -667.824 210 210 210 255
407.343 2.57526 -664.136 210 210 210 255
407.343 2.57526 -660.444 210 210 210 255
407.343 2.57526 -656.747 210 210 210 255
407.343 2.57526 -653.047 210 210 210 255
407.343 2.57526 -649.342 210 210 210 255
407.343 2.57526 -645.633 210 210 210 255
407.343 2.57526 -641.92 210 210 210 255
407.343 2.57526 -638.203 210 210 210 255
407.343 2.57526 -634.482 210 210 210 255
407.343 2.57526 -630.757 210 210 210 255
407.343 2.57526 -627.028 210 210 210 255
407.343 2.57526 -623.296 210 210 210 255
407.343 2.57526 -619.559 210 210 210 255
407.343 2.57526 -615.819 210 210 210 255
407.343 2.57526 -612.075 210 210 210 255
407.343 2.57526 -608.327 210 210 210 255
407.343 2.57526 -604.576 210 210 210 255
407.343 2.57526 -600.821 210 210 210 255
407.343 2.57526 -597.063 210 210 210 255
407.343 2.57526 -593.301 210 210 210 255
407.343 2.57526 -589.535 210 210 210 255
407.343 2.57526 -585.766 210 210 210 255
407.343 2.57526 -581.994 210 210 210 255
407.343 2.57526 -578.219 210 210 210 255
407.343 2.57526 -574.44 210 210 210 255
407.343 2.57526 -570.657 210 210 210 255
407.343 2.57526 -566.872 210 210 210 255
407.343 2.57526 -563.083 210 210 210 255
407.343 2.57526 -559.292 210 210 210 255
407.343 2.57526 -555.497 210 210 210 255
407.343 2.57526 -551.699 210 210 210 255
407.343 2.57526 -547.898 210 210 210 255
407.343 2.57526 -544.094 210 210 210 255
407.343 2.57526 -540.287 210 210 210 255
407.343 2.57526 -536.477 210 210 210 255
407.343 2.57526 -532.664 210 210 210 255
407.343 2.57526 -528.849 210 210 210 255
407.343 2.57526 -525.031 210 210 210 255
407.343 2.57526 -521.209 210 210 210 255
407.343 2.57526 -517.386 210 210 210 255
407.343 2.57526 -513.559 210 210 210 255
407.343 2.57526 -509.73 210 210 210 255
407.343 2.57526 -505.899 210 210 210 255
407.343 2.57526 -502.065 210 210 210 255
407.343 2.57526 -498.228 210 210 210 255
407.343 2.57526 -494.389 210 210 210 255
407.343 2.57526 -490.547 210 210 210 255
407.343 2.57526 -486.703 210 210 210 255
407.343 2.57526 -482.857 210 210 210 255
407.343 2.57526 -479.008 210 210 210 255
407.343 2.57526 -475.157 210 210 210 255
407.343 2.57526 -471.304 210 210 210 255
407.343 2.57526 -467.449 210 210 210 255
407.343 2.57526 -463.592 210 210 210 255
407.343 2.57526 -459.732 210 210 210 255
407.343 2.57526 -455.87 210 210 210 255
407.343 2.57526 -452.007 210 210 210 255
407.343 2.57526 -448.141 210 210 210 255
407.343 2.57526 -444.273 210 210 210 255
407.343 2.57526 -440.404 210 210 210 255
407.343 2.57526 -436.533 210 210 210 255
407.343 2.57526 -432.659 210 210 210 255
407.343 2.57526 -428.784 210 210 210 255
407.343 2.57526 -424.907 210 210 210 255
407.343 2.57526 -421.029 210 210 210 255
407.343 2.57526 -417.149 210 210 210 255
407.343 2.57526 -413.267 210 210 210 255
407.343 2.57526 -409.384 210 210 210 255
407.343 2.57526 -405.498 210 210 210 255
407.343 2.57526 -401.612 210 210 210 255
407.343 2.57526 -397.724 210 210 210 255
407.343 2.57526 -393.834 210 210 210 255
407.343 2.57526 -389.943 210 210 210 255
407.343 2.57526 -386.051 210 210 210 255
407.343 2.57526 -382.157 210 210 210 255
407.343 2.57526 -378.263 210 210 210 255
407.343 2.57526 -374.366 210 210 210 255
407.343 2.57526 -370.469 210 210 210 255
407.343 2.57526 -366.57 210 210 210 255
407.343 2.57526 -362.671 210 210 210 255
407.343 2.57526 -358.77 210 210 210 255
407.343 2.57526 -354.868 210 210 210 255
407.343 2.57526 -350.965 210 210 210 255
407.343 2.57526 -347.061 210 210 210 255
407.343 2.57526 -343.156 210 210 210 255
407.343 2.57526 -339.25 210 210 210 255
407.343 2.57526 -335.343 210 210 210 255
407.343 2.57526 -331.436 210 210 210 255
407.343 2.57526 -327.527 210 210 210 255
407.343 2.57526 -323.618 210 210 210 255
407.343 2.57526 -319.708 210 210 210 255
407.343 2.57526 -315.797 210 210 210 255
407.343 2.57526 -311.886 210 210 210 255
407.343 2.57526 -307.974 210 210 210 255
407.343 2.57526 -304.062 210 210 210 255
407.343 2.57526 -300.149 210 210 210 255
407.343 2.57526 -296.235 210 210 210 255
407.343 2.57526 -292.321 210 210 210 255
407.343 2.57526 -288.407 210 210 210 255
407.343 2.57526 -284.492 210 210 210 255
407.343 2.57526 -280.576 210 210 210 255
407.343 2.57526 -276.661 210 210 210 255
407.343 2.57526 -272.745 210 210 210 255
407.343 2.57526 -268.829 210 210 210 255
407.343 2.57526 -264.912 210 210 210 255
407.343 2.57526 -260.996 210 210 210 255
407.343 2.57526 -257.079 210 210 210 255
407.343 2.57526 -253.162 210 210 210 255
407.343 2.57526 -249.245 210 210 210 255
407.343 2.57526 -245.328 210 210 210 255
407.343 2.57526 -241.411 210 210 210 255
407.343 2.57526 -237.494 210 210 210 255
407.343 2.57526 -233.577 210 210 210 255
407.343 2.57526 -229.661 210 210 210 255
407.343 2.57526 -225.744 210 210 210 255
407.343 2.57526 -221.827 210 210 210 255
407.343 2.57526 -217.911 210 210 210 255
407.343 2.57526 -213.995 210 210 210 255
407.343 2.57526 -210.079 210 210 210 255
407.343 2.57526 -206.164 210 210 210 255
407.343 2.57526 -202.249 210 210 210 255
407.343 2.57526 -198.334 210 210 210 255
407.343 2.57526 -194.42 210 210 210 255
407.343 2.57526 -190.506 210 210 210 255
407.343 2.57526 -186.593 210 210 210 255
407.343 2.57526 -182.68 210 210 210 255
407.343 2.57526 -178.767 210 210 210 255
407.343 2.57526 -174.856 210 210 210 255
407.343 2.57526 -170.945 210 210 210 255
407.343 2.57526 -167.034 210 210 210 255
407.343 2.57526 -163.125 210 210 210 255
407.343 2.57526 -159.216 210 210 210 255
407.343 2.57526 -155.307 210 210 210 255
407.343 2.57526 -151.4 210 210 210 255
407.343 2.57526 -147.493 210 210 210 255
407.343 2.57526 -143.588 210 210 210 255
407.343 2.57526 -139.683 210 210 210 255
407.343 2.57526 -135.779 210 210 210 255
407.343 2.57526 -131.876 210 210 210 255
407.343 2.57526 -127.974 210 210 210 255
407.343 2.57526 -124.074 210 210 210 255
407.343 2.57526 -120.174 210 210 210 255
407.343 2.57526 -116.275 210 210 210 255
407.343 2.57526 -112.378 210 210 210 255
407.343 2.57526 -108.482 210 210 210 255
407.343 2.57526 -104.586 210 210 210 255
407.343 2.57526 -100.693 210 210 210 255
407.343 2.57526 -96.7999 210 210 210 255
407.343 2.57526 -92.9089 210 210 210 255
407.343 2.57526 -89.0189 210 210 210 255
407.343 2.57526 -85.1304 210 210 210 255
407.343 2.57526 -81.2432 210 210 210 255
407.343 2.57526 -77.3577 210 210 210 255
407.343 2.57526 -73.4734 210 210 210 255
407.343 2.57526 -69.5908 210 210 210 255
407.343 2.57526 -65.7097 210 210 210 255
407.343 2.57526 -61.8302 210 210 210 255
407.343 2.57526 -57.9523 210 210 210 255
407.343 2.57526 -54.076 210 210 210 255
407.343 2.57526 -50.2014 210 210 210 255
407.343 2.57526 -46.3287 210 210 210 255
407.343 2.57526 -42.4575 210 210 210 255
407.343 2.57526 -38.5881 210 210 210 255
407.343 2.57526 -34.7206 210 210 210 255
407.343 2.57526 -30.8551 210 210 210 255
407.343 2.57526 -26.9913 210 210 210 255
407.343 2.57526 -23.1293 210 210 210 255
407.343 2.57526 -19.2694 210 210 210 255
407.343 2.57526 -15.4114 210 210 210 255
407.343 2.57526 -11.5555 210 210 210 255
407.343 2.57526 -7.70154 210 210 210 255
407.343 2.57526 -3.84967 210 210 210 255
407.343 2.57526 0 210 210 210 255
407.277 6.04077 -762.091 210 210 210 255
407.277 6.04077 -758.528 210 210 210 255
407.277 6.04077 -754.961 210 210 210 255
407.277 6.04077 -751.388 210 210 210 255
407.277 6.04077 -747.809 210 210 210 255
407.277 6.04077 -744.226 210 210 210 255
407.277 6.04077 -740.637 210 210 210 255
407.277 6.04077 -737.043 210 210 210 255
407.277 6.04077 -733.444 210 210 210 255
407.277 6.04077 -729.84 210 210 210 255
407.277 6.04077 -726.231 210 210 210 255
407.277 6.04077 -722.616 210 210 210 255
407.277 6.04077 -718.997 210 210 210 255
407.277 6.04077 -715.373 210 210 210 255
407.277 6.04077 -711.745 210 210 210 255
407.277 6.04077 -708.111 210 210 210 255
407.277 6.04077 -704.472 210 210 210 255
407.277 6.04077 -700.829 210 210 210 255
407.277 6.04077 -697.181 210 210 210 255
407.277 6.04077 -693.529 210 210 210 255
407.277 6.04077 -689.872 210 210 210 255
407.277 6.04077 -686.21 210 210 210 255
407.277 6.04077 -682.544 210 210 210 255
407.277 6.04077 -678.873 210 210 210 255
407.277 6.04077 -675.198 210 210 210 255
407.277 6.04077 -671.519 210 210 210 255
407.277 6.04077 -667.835 210 210 210 255
407.277 6.04077 -664.147 210 210 210 255
407.277 6.04077 -660.454 210 210 210 255
407.277 6.04077 -656.758 210 210 210 255
407.277 6.04077 -653.057 210 210 210 255
407.277 6.04077 -649.352 210 210 210 255
407.277 6.04077 -645.643 210 210 210 255
407.277 6.04077 -641.93 210 210 210 255
407.277 6.04077 -638.213 210 210 210 255
407.277 6.04077 -634.492 210 210 210 255
407.277 6.04077 -630.767 210 210 210 255
407.277 6.04077 -627.038 210 210 210 255
407.277 6.04077 -623.306 210 210 210 255
407.277 6.04077 -619.569 210 210 210 255
407.277 6.04077 -615.829 210 210 210 255
407.277 6.04077 -612.085 210 210 210 255
407.277 6.04077 -608.338 210 210 210 255
407.277 6.04077 -604.587 210 210 210 255
407.277 6.04077 -600.832 210 210 210 255
407.277 6.04077 -597.074 210 210 210 255
407.277 6.04077 -593.312 210 210 210 255
407.277 6.04077 -589.547 210 210 210 255
407.277 6.04077 -585.778 210 210 210 255
407.277 6.04077 -582.006 210 210 210 255
407.277 6.04077 -578.23 210 210 210 255
407.277 6.04077 -574.452 210 210 210 255
407.277 6.04077 -570.67 210 210 210 255
407.277 6.04077 -566.885 210 210 210 255
407.277 6.04077 -563.096 210 210 210 255
407.277 6.04077 -559.305 210 210 210 255
407.277 6.04077 -555.51 210 210 210 255
407.277 6.04077 -551.713 210 210 210 255
407.277 6.04077 -547.912 210 210 210 255
407.277 6.04077 -544.108 210 210 210 255
407.277 6.04077 -540.302 210 210 210 255
407.277 6.04077 -536.492 210 210 210 255
407.277 6.04077 -532.68 210 210 210 255
407.277 6.04077 -528.865 210 210 210 255
407.277 6.04077 -525.047 210 210 210 255
407.277 6.04077 -521.226 210 210 210 255
407.277 6.04077 -517.403 210 210 210 255
407.277 6.04077 -513.577 210 210 210 255
407.277 6.04077 -509.748 210 210 210 255
407.277 6.04077 -505.917 210 210 210 255
407.277 6.04077 -502.083 210 210 210 255
407.277 6.04077 -498.247 210 210 210 255
407.277 6.04077 -494.409 210 210 210 255
407.277 6.04077 -490.568 210 210 210 255
407.277 6.04077 -486.724 210 210 210 255
407.277 6.04077 -482.878 210 210 210 255
407.277 6.04077 -479.03 210 210 210 255
407.277 6.04077 -475.18 210 210 210 255
407.277 6.04077 -471.327 210 210 210 255
407.277 6.04077 -467.473 210 210 210 255
407.277 6.04077 -463.616 210 210 210 255
407.277 6.04077 -459.757 210 210 210 255
407.277 6.04077 -455.896 210 210 210 255
407.277 6.04077 -452.033 210 210 210 255
407.277 6.04077 -448.168 210 210 210 255
407.277 6.04077 -444.301 210 210 210 255
407.277 6.04077 -440.432 210 210 210 255
407.277 6.04077 -436.561 210 210 210 255
407.277 6.04077 -432.688 210 210 210 255
407.277 6.04077 -428.814 210 210 210 255
407.277 6.04077 -424.938 210 210 210 255
407.277 6.04077 -421.06 210 210 210 255
407.277 6.04077 -417.18 210 210 210 255
407.277 6.04077 -413.299 210 210 210 255
407.277 6.04077 -409.416 210 210 210 255
407.277 6.04077 -405.532 210 210 210 255
407.277 6.04077 -401.646 210 210 210 255
407.277 6.04077 -397.759 210 210 210 255
407.277 6.04077 -393.87 210 210 210 255
407.277 6.04077 -389.979 210 210 210 255
407.277 6.04077 -386.088 210 210 210 255
407.277 6.04077 -382.195 210 210 210 255
407.277 6.04077 -378.301 210 210 210 255
407.277 6.04077 -374.405 210 210 210 255
407.277 6.04077 -370.508 210 210 210 255
407.277 6.04077 -366.61 210 210 210 255
407.277 6.04077 -362.711 210 210 210 255
407.277 6.04077 -358.811 210 210 210 255
407.277 6.04077 -354.91 210 210 210 255
407.277 6.04077 -351.008 210 210 210 255
407.277 6.04077 -347.104 210 210 210 255
407.277 6.04077 -343.2 210 210 210 255
407.277 6.04077 -339.295 210 210 210 255
407.277 6.04077 -335.389 210 210 210 255
407.277 6.04077 -331.482 210 210 210 255
407.277 6.04077 -327.574 210 210 210 255
407.277 6.04077 -323.665 210 210 210 255
407.277 6.04077 -319.756 210 210 210 255
407.277 6.04077 -315.846 210 210 210 255
407.277 6.04077 -311.935 210 210 210 255
407.277 6.04077 -308.024 210 210 210 255
407.277 6.04077 -304.112 210 210 210 255
407.277 6.04077 -300.2 210 210 210 255
407.277 6.04077 -296.287 210 210 210 255
407.277 6.04077 -292.373 210 210 210 255
407.277 6.04077 -288.459 210 210 210 255
407.277 6.04077 -284.545 210 210 210 255
407.277 6.04077 -280.63 210 210 210 255
407.277 6.04077 -276.715 210 210 210 255
407.277 6.04077 -272.799 210 210 210 255
407.277 6.04077 -268.884 210 210 210 255
407.277 6.04077 -264.968 210 210 210 255
407.277 6.04077 -261.052 210 210 210 255
407.277 6.04077 -257.135 210 210 210 255
407.277 6.04077 -253.219 210 210 210 255
407.277 6.04077 -249.302 210 210 210 255
407.277 6.04077 -245.386 210 210 210 255
407.277 6.04077 -241.469 210 210 210 255
407.277 6.04077 -237.552 210 210 210 255
407.277 6.04077 -233.636 210 210 210 255
407.277 6.04077 -229.719 210 210 210 255
407.277 6.04077 -225.803 210 210 210 255
407.277 6.04077 -221.887 210 210 210 255
407.277 6.04077 -217.97 210 210 210 255
407.277 6.04077 -214.055 210 210 210 255
407.277 6.04077 -210.139 210 210 210 255
407.277 6.04077 -206.224 210 210 210 255
407.277 6.04077 -202.309 210 210 210 255
407.277 6.04077 -198.394 210 210 210 255
407.277 6.04077 -194.48 210 210 210 255
407.277 6.04077 -190.566 210 210 210 255
407.277 6.04077 -186.652 210 210 210 255
407.277 6.04077 -182.74 210 210 210 255
407.277 6.04077 -178.827 210 210 210 255
407.277 6.04077 -174.915 210 210 210 255
407.277 6.04077 -171.004 210 210 210 255
407.277 6.04077 -167.093 210 210 210 255
407.277 6.04077 -163.183 210 210 210 255
407.277 6.04077 -159.274 210 210 210 255
407.277 6.04077 -155.366 210 210 210 255
407.277 6.04077 -151.458 210 210 210 255
407.277 6.04077 -147.551 210 210 210 255
407.277 6.04077 -143.645 210 210 210 255
407.277 6.04077 -139.739 210 210 210 255
407.277 6.04077 -135.835 210 210 210 255
407.277 6.04077 -131.932 210 210 210 255
407.277 6.04077 -128.029 210 210 210 255
407.277 6.04077 -124.128 210 210 210 255
407.277 6.04077 -120.227 210 210 210 255
407.277 6.04077 -116.328 210 210 210 255
407.277 6.04077 -112.429 210 210 210 255
407.277 6.04077 -108.532 210 210 210 255
407.277 6.04077 -104.636 210 210 210 255
407.277 6.04077 -100.741 210 210 210 255
407.277 6.04077 -96.8478 210 210 210 255
407.277 6.04077 -92.9553 210 210 210 255
407.277 6.04077 -89.0641 210 210 210 255
407.277 6.04077 -85.1746 210 210 210 255
407.277 6.04077 -81.2863 210 210 210 255
407.277 6.04077 -77.3992 210 210 210 255
407.277 6.04077 -73.5136 210 210 210 255
407.277 6.04077 -69.6295 210 210 210 255
407.277 6.04077 -65.7468 210 210 210 255
407.277 6.04077 -61.8657 210 210 210 255
407.277 6.04077 -57.9861 210 210 210 255
407.277 6.04077 -54.1082 210 210 210 255
407.277 6.04077 -50.2317 210 210 210 255
407.277 6.04077 -46.3571 210 210 210 255
407.277 6.04077 -42.4839 210 210 210 255
407.277 6.04077 -38.6125 210 210 210 255
407.277 6.04077 -34.7429 210 210 210 255
407.277 6.04077 -30.8751 210 210 210 255
407.277 6.04077 -27.0092 210 210 210 255
407.277 6.04077 -23.145 210 210 210 255
407.277 6.04077 -19.2827 210 210 210 255
407.277 6.04077 -15.4221 210 210 210 255
407.277 6.04077 -11.5637 210 210 210 255
407.277 6.04077 -7.70715 210 210 210 255
407.277 6.04077 -3.85254 210 210 210 255
407.277 6.04077 0 210 210 210 255
407.176 9.50488 -762.114 210 210 210 255
407.176 9.50488 -758.552 210 210 210 255
407.176 9.50488 -754.983 210 210 210 255
407.176 9.50488 -751.41 210 210 210 255
407.176 9.50488 -747.831 210 210 210 255
407.176 9.50488 -744.247 210 210 210 255
407.176 9.50488 -740.658 210 210 210 255
407.176 9.50488 -737.064 210 210 210 255
407.176 9.50488 -733.464 210 210 210 255
407.176 9.50488 -729.859 210 210 210 255
407.176 9.50488 -726.25 210 210 210 255
407.176 9.50488 -722.635 210 210 210 255
407.176 9.50488 -719.016 210 210 210 255
407.176 9.50488 -715.391 210 210 210 255
407.176 9.50488 -711.762 210 210 210 255
407.176 9.50488 -708.128 210 210 210 255
407.176 9.50488 -704.49 210 210 210 255
407.176 9.50488 -700.846 210 210 210 255
407.176 9.50488 -697.198 210 210 210 255
407.176 9.50488 -693.545 210 210 210 255
407.176 9.50488 -689.888 210 210 210 255
407.176 9.50488 -686.226 210 210 210 255
407.176 9.50488 -682.559 210 210 210 255
407.176 9.50488 -678.888 210 210 210 255
407.176 9.50488 -675.213 210 210 210 255
407.176 9.50488 -671.533 210 210 210 255
407.176 9.50488 -667.849 210 210 210 255
407.176 9.50488 -664.161 210 210 210 255
407.176 9.50488 -660.469 210 210 210 255
407.176 9.50488 -656.772 210 210 210 255
407.176 9.50488 -653.071 210 210 210 255
407.176 9.50488 -649.366 210 210 210 255
407.176 9.50488 -645.657 210 210 210 255
407.176 9.50488 -641.944 210 210 210 255
407.176 9.50488 -638.227 210 210 210 255
407.176 9.50488 -634.506 210 210 210 255
407.176 9.50488 -630.781 210 210 210 255
407.176 9.50488 -627.052 210 210 210 255
407.176 9.50488 -623.319 210 210 210 255
407.176 9.50488 -619.583 210 210 210 255
407.176 9.50488 -615.843 210 210 210 255
407.176 9.50488 -612.099 210 210 210 255
407.176 9.50488 -608.351 210 210 210 255
407.176 9.50488 -604.6 210 210 210 255
407.176 9.50488 -600.845 210 210 210 255
407.176 9.50488 -597.087 210 210 210 255
407.176 9.50488 -593.325 210 210 210 255
407.176 9.50488 -589.56 210 210 210 255
407.176 9.50488 -585.792 210 210 210 255
407.176 9.50488 -582.02 210 210 210 255
407.176 9.50488 -578.244 210 210 210 255
407.176 9.50488 -574.466 210 210 210 255
407.176 9.50488 -570.684 210 210 210 255
407.176 9.50488 -566.899 210 210 210 255
407.176 9.50488 -563.111 210 210 210 255
407.176 9.50488 -559.32 210 210 210 255
407.176 9.50488 -555.525 210 210 210 255
407.176 9.50488 -551.728 210 210 210 255
407.176 9.50488 -547.927 210 210 210 255
407.176 9.50488 -544.124 210 210 210 255
407.176 9.50488 -540.318 210 210 210 255
407.176 9.50488 -536.509 210 210 210 255
407.176 9.50488 -532.697 210 210 210 255
407.176 9.50488 -528.882 210 210 210 255
407.176 9.50488 -525.064 210 210 210 255
407.176 9.50488 -521.244 210 210 210 255
407.176 9.50488 -517.421 210 210 210 255
407.176 9.50488 -513.595 210 210 210 255
407.176 9.50488 -509.767 210 210 210 255
407.176 9.50488 -505.936 210 210 210 255
407.176 9.50488 -502.103 210 210 210 255
407.176 9.50488 -498.267 210 210 210 255
407.176 9.50488 -494.429 210 210 210 255
407.176 9.50488 -490.588 210 210 210 255
407.176 9.50488 -486.746 210 210 210 255
407.176 9.50488 -482.9 210 210 210 255
407.176 9.50488 -479.053 210 210 210 255
407.176 9.50488 -475.203 210 210 210 255
407.176 9.50488 -471.351 210 210 210 255
407.176 9.50488 -467.497 210 210 210 255
407.176 9.50488 -463.64 210 210 210 255
407.176 9.50488 -459.782 210 210 210 255
407.176 9.50488 -455.921 210 210 210 255
407.176 9.50488 -452.059 210 210 210 255
407.176 9.50488 -448.194 210 210 210 255
407.176 9.50488 -444.328 210 210 210 255
407.176 9.50488 -440.459 210 210 210 255
407.176 9.50488 -436.589 210 210 210 255
407.176 9.50488 -432.717 210 210 210 255
407.176 9.50488 -428.843 210 210 210 255
407.176 9.50488 -424.968 210 210 210 255
407.176 9.50488 -421.09 210 210 210 255
407.176 9.50488 -417.211 210 210 210 255
407.176 9.50488 -413.331 210 210 210 255
407.176 9.50488 -409.449 210 210 210 255
407.176 9.50488 -405.565 210 210 210 255
407.176 9.50488 -401.68 210 210 210 255
407.176 9.50488 -397.793 210 210 210 255
407.176 9.50488 -393.905 210 210 210 255
407.176 9.50488 -390.015 210 210 210 255
407.176 9.50488 -386.124 210 210 210 255
407.176 9.50488 -382.232 210 210 210 255
407.176 9.50488 -378.338 210 210 210 255
407.176 9.50488 -374.443 210 210 210 255
407.176 9.50488 -370.547 210 210 210 255
407.176 9.50488 -366.65 210 210 210 255
407.176 9.50488 -362.751 210 210 210 255
407.176 9.50488 -358.852 210 210 210 255
407.176 9.50488 -354.951 210 210 210 255
407.176 9.50488 -351.05 210 210 210 255
407.176 9.50488 -347.147 210 210 210 255
407.176 9.50488 -343.243 210 210 210 255
407.176 9.50488 -339.339 210 210 210 255
407.176 9.50488 -335.433 210 210 210 255
407.176 9.50488 -331.527 210 210 210 255
407.176 9.50488 -327.62 210 210 210 255
407.176 9.50488 -323.712 210 210 210 255
407.176 9.50488 -319.803 210 210 210 255
407.176 9.50488 -315.893 210 210 210 255
407.176 9.50488 -311.983 210 210 210 255
407.176 9.50488 -308.073 210 210 210 255
407.176 9.50488 -304.161 210 210 210 255
407.176 9.50488 -300.249 210 210 210 255
407.176 9.50488 -296.337 210 210 210 255
407.176 9.50488 -292.424 210 210 210 255
407.176 9.50488 -288.51 210 210 210 255
407.176 9.50488 -284.596 210 210 210 255
407.176 9.50488 -280.682 210 210 210 255
407.176 9.50488 -276.767 210 210 210 255
407.176 9.50488 -272.852 210 210 210 255
407.176 9.50488 -268.937 210 210 210 255
407.176 9.50488 -265.022 210 210 210 255
407.176 9.50488 -261.106 210 210 210 255
407.176 9.50488 -257.19 210 210 210 255
407.176 9.50488 -253.274 210 210 210 255
407.176 9.50488 -249.358 210 210 210 255
407.176 9.50488 -245.442 210 210 210 255
407.176 9.50488 -241.525 210 210 210 255
407.176 9.50488 -237.609 210 210 210 255
407.176 9.50488 -233.692 210 210 210 255
407.176 9.50488 -229.776 210 210 210 255
407.176 9.50488 -225.86 210 210 210 255
407.176 9.50488 -221.944 210 210 210 255
407.176 9.50488 -218.028 210 210 210 255
407.176 9.50488 -214.112 210 210 210 255
407.176 9.50488 -210.197 210 210 210 255
407.176 9.50488 -206.282 210 210 210 255
407.176 9.50488 -202.367 210 210 210 255
407.176 9.50488 -198.452 210 210 210 255
407.176 9.50488 -194.538 210 210 210 255
407.176 9.50488 -190.624 210 210 210 255
407.176 9.50488 -186.71 210 210 210 255
407.176 9.50488 -182.797 210 210 210 255
407.176 9.50488 -178.885 210 210 210 255
407.176 9.50488 -174.973 210 210 210 255
407.176 9.50488 -171.062 210 210 210 255
407.176 9.50488 -167.151 210 210 210 255
407.176 9.50488 -163.24 210 210 210 255
407.176 9.50488 -159.331 210 210 210 255
407.176 9.50488 -155.422 210 210 210 255
407.176 9.50488 -151.514 210 210 210 255
407.176 9.50488 -147.606 210 210 210 255
407.176 9.50488 -143.7 210 210 210 255
407.176 9.50488 -139.794 210 210 210 255
407.176 9.50488 -135.889 210 210 210 255
407.176 9.50488 -131.985 210 210 210 255
407.176 9.50488 -128.082 210 210 210 255
407.176 9.50488 -124.18 210 210 210 255
407.176 9.50488 -120.279 210 210 210 255
407.176 9.50488 -116.378 210 210 210 255
407.176 9.50488 -112.479 210 210 210 255
407.176 9.50488 -108.581 210 210 210 255
407.176 9.50488 -104.684 210 210 210 255
407.176 9.50488 -100.789 210 210 210 255
407.176 9.50488 -96.8939 210 210 210 255
407.176 9.50488 -93.0004 210 210 210 255
407.176 9.50488 -89.1083 210 210 210 255
407.176 9.50488 -85.2174 210 210 210 255
407.176 9.50488 -81.3277 210 210 210 255
407.176 9.50488 -77.4394 210 210 210 255
407.176 9.50488 -73.5524 210 210 210 255
407.176 9.50488 -69.667 210 210 210 255
407.176 9.50488 -65.7828 210 210 210 255
407.176 9.50488 -61.9 210 210 210 255
407.176 9.50488 -58.0189 210 210 210 255
407.176 9.50488 -54.1392 210 210 210 255
407.176 9.50488 -50.261 210 210 210 255
407.176 9.50488 -46.3845 210 210 210 255
407.176 9.50488 -42.5096 210 210 210 255
407.176 9.50488 -38.6362 210 210 210 255
407.176 9.50488 -34.7646 210 210 210 255
407.176 9.50488 -30.8947 210 210 210 255
407.176 9.50488 -27.0266 210 210 210 255
407.176 9.50488 -23.16 210 210 210 255
407.176 9.50488 -19.2954 210 210 210 255
407.176 9.50488 -15.4326 210 210 210 255
407.176 9.50488 -11.5716 210 210 210 255
407.176 9.50488 -7.71252 210 210 210 255
407.176 9.50488 -3.85529 210 210 210 255
407.176 9.50488 0 210 210 210 255
407.04 12.967 -762.145 210 210 210 255
407.04 12.967 -758.582 210 210 210 255
407.04 12.967 -755.013 210 210 210 255
407.04 12.967 -751.439 210 210 210 255
407.04 12.967 -747.859 210 210 210 255
407.04 12.967 -744.275 210 210 210 255
407.04 12.967 -740.685 210 210 210 255
407.04 12.967 -737.09 210 210 210 255
407.04 12.967 -733.49 210 210 210 255
407.04 12.967 -729.885 210 210 210 255
407.04 12.967 -726.275 210 210 210 255
407.04 12.967 -722.66 210 210 210 255
407.04 12.967 -719.04 210 210 210 255
407.04 12.967 -715.415 210 210 210 255
407.04 12.967 -711.785 210 210 210 255
407.04 12.967 -708.151 210 210 210 255
407.04 12.967 -704.512 210 210 210 255
407.04 12.967 -700.868 210 210 210 255
407.04 12.967 -697.219 210 210 210 255
407.04 12.967 -693.566 210 210 210 255
407.04 12.967 -689.908 210 210 210 255
407.04 12.967 -686.246 210 210 210 255
407.04 12.967 -682.579 210 210 210 255
407.04 12.967 -678.908 210 210 210 255
407.04 12.967 -675.232 210 210 210 255
407.04 12.967 -671.552 210 210 210 255
407.04 12.967 -667.868 210 210 210 255
407.04 12.967 -664.179 210 210 210 255
407.04 12.967 -660.487 210 210 210 255
407.04 12.967 -656.79 210 210 210 255
407.04 12.967 -653.088 210 210 210 255
407.04 12.967 -649.383 210 210 210 255
407.04 12.967 -645.674 210 210 210 255
407.04 12.967 -641.961 210 210 210 255
407.04 12.967 -638.243 210 210 210 255
407.04 12.967 -634.522 210 210 210 255
407.04 12.967 -630.797 210 210 210 255
407.04 12.967 -627.068 210 210 210 255
407.04 12.967 -623.335 210 210 210 255
407.04 12.967 -619.599 210 210 210 255
407.04 12.967 -615.859 210 210 210 255
407.04 12.967 -612.115 210 210 210 255
407.04 12.967 -608.367 210 210 210 255
407.04 12.967 -604.616 210 210 210 255
407.04 12.967 -600.861 210 210 210 255
407.04 12.967 -597.103 210 210 210 255
407.04 12.967 -593.341 210 210 210 255
407.04 12.967 -589.576 210 210 210 255
407.04 12.967 -585.807 210 210 210 255
407.04 12.967 -582.036 210 210 210 255
407.04 12.967 -578.26 210 210 210 255
407.04 12.967 -574.482 210 210 210 255
407.04 12.967 -570.7 210 210 210 255
407.04 12.967 -566.915 210 210 210 255
407.04 12.967 -563.127 210 210 210 255
407.04 12.967 -559.336 210 210 210 255
407.04 12.967 -555.542 210 210 210 255
407.04 12.967 -551.745 210 210 210 255
407.04 12.967 -547.945 210 210 210 255
407.04 12.967 -544.141 210 210 210 255
407.04 12.967 -540.335 210 210 210 255
407.04 12.967 -536.526 210 210 210 255
407.04 12.967 -532.715 210 210 210 255
407.04 12.967 -528.9 210 210 210 255
407.04 12.967 -525.083 210 210 210 255
407.04 12.967 -521.263 210 210 210 255
407.04 12.967 -517.44 210 210 210 255
407.04 12.967 -513.615 210 210 210 255
407.04 12.967 -509.787 210 210 210 255
407.04 12.967 -505.957 210 210 210 255
407.04 12.967 -502.124 210 210 210 255
407.04 12.967 -498.288 210 210 210 255
407.04 12.967 -494.45 210 210 210 255
407.04 12.967 -490.61 210 210 210 255
407.04 12.967 -486.768 210 210 210 255
407.04 12.967 -482.923 210 210 210 255
407.04 12.967 -479.075 210 210 210 255
407.04 12.967 -475.226 210 210 210 255
407.04 12.967 -471.374 210 210 210 255
407.04 12.967 -467.521 210 210 210 255
407.04 12.967 -463.665 210 210 210 255
407.04 12.967 -459.807 210 210 210 255
407.04 12.967 -455.947 210 210 210 255
407.04 12.967 -452.085 210 210 210 255
407.04 12.967 -448.221 210 210 210 255
407.04 12.967 -444.355 210 210 210 255
407.04 12.967 -440.487 210 210 210 255
407.04 12.967 -436.617 210 210 210 255
407.04 12.967 -432.746 210 210 210 255
407.04 12.967 -428.872 210 210 210 255
407.04 12.967 -424.997 210 210 210 255
407.04 12.967 -421.121 210 210 210 255
407.04 12.967 -417.242 210 210 210 255
407.04 12.967 -413.362 210 210 210 255
407.04 12.967 -409.481 210 210 210 255
407.04 12.967 -405.598 210 210 210 255
407.04 12.967 -401.713 210 210 210 255
407.04 12.967 -397.827 210 210 210 255
407.04 12.967 -393.939 210 210 210 255
407.04 12.967 -390.05 210 210 210 255
407.04 12.967 -386.16 210 210 210 255
407.04 12.967 -382.268 210 210 210 255
407.04 12.967 -378.375 210 210 210 255
407.04 12.967 -374.481 210 210 210 255
407.04 12.967 -370.585 210 210 210 255
407.04 12.967 -366.688 210 210 210 255
407.04 12.967 -362.79 210 210 210 255
407.04 12.967 -358.892 210 210 210 255
407.04 12.967 -354.992 210 210 210 255
407.04 12.967 -351.09 210 210 210 255
407.04 12.967 -347.188 210 210 210 255
407.04 12.967 -343.285 210 210 210 255
407.04 12.967 -339.381 210 210 210 255
407.04 12.967 -335.476 210 210 210 255
407.04 12.967 -331.571 210 210 210 255
407.04 12.967 -327.664 210 210 210 255
407.04 12.967 -323.757 210 210 210 255
407.04 12.967 -319.848 210 210 210 255
407.04 12.967 -315.94 210 210 210 255
407.04 12.967 -312.03 210 210 210 255
407.04 12.967 -308.12 210 210 210 255
407.04 12.967 -304.209 210 210 210 255
407.04 12.967 -300.298 210 210 210 255
407.04 12.967 -296.385 210 210 210 255
407.04 12.967 -292.473 210 210 210 255
407.04 12.967 -288.56 210 210 210 255
407.04 12.967 -284.647 210 210 210 255
407.04 12.967 -280.733 210 210 210 255
407.04 12.967 -276.819 210 210 210 255
407.04 12.967 -272.904 210 210 210 255
407.04 12.967 -268.989 210 210 210 255
407.04 12.967 -265.074 210 210 210 255
407.04 12.967 -261.159 210 210 210 255
407.04 12.967 -257.243 210 210 210 255
407.04 12.967 -253.328 210 210 210 255
407.04 12.967 -249.412 210 210 210 255
407.04 12.967 -245.496 210 210 210 255
407.04 12.967 -241.58 210 210 210 255
407.04 12.967 -237.664 210 210 210 255
407.04 12.967 -233.748 210 210 210 255
407.04 12.967 -229.832 210 210 210 255
407.04 12.967 -225.916 210 210 210 255
407.04 12.967 -222 210 210 210 255
407.04 12.967 -218.084 210 210 210 255
407.04 12.967 -214.168 210 210 210 255
407.04 12.967 -210.253 210 210 210 255
407.04 12.967 -206.338 210 210 210 255
407.04 12.967 -202.423 210 210 210 255
407.04 12.967 -198.508 210 210 210 255
407.04 12.967 -194.594 210 210 210 255
407.04 12.967 -190.68 210 210 210 255
407.04 12.967 -186.767 210 210 210 255
407.04 12.967 -182.854 210 210 210 255
407.04 12.967 -178.941 210 210 210 255
407.04 12.967 -175.029 210 210 210 255
407.04 12.967 -171.117 210 210 210 255
407.04 12.967 -167.206 210 210 210 255
407.04 12.967 -163.296 210 210 210 255
407.04 12.967 -159.386 210 210 210 255
407.04 12.967 -155.477 210 210 210 255
407.04 12.967 -151.568 210 210 210 255
407.04 12.967 -147.66 210 210 210 255
407.04 12.967 -143.753 210 210 210 255
407.04 12.967 -139.847 210 210 210 255
407.04 12.967 -135.942 210 210 210 255
407.04 12.967 -132.037 210 210 210 255
407.04 12.967 -128.133 210 210 210 255
407.04 12.967 -124.231 210 210 210 255
407.04 12.967 -120.329 210 210 210 255
407.04 12.967 -116.428 210 210 210 255
407.04 12.967 -112.528 210 210 210 255
407.04 12.967 -108.629 210 210 210 255
407.04 12.967 -104.731 210 210 210 255
407.04 12.967 -100.834 210 210 210 255
407.04 12.967 -96.9387 210 210 210 255
407.04 12.967 -93.0443 210 210 210 255
407.04 12.967 -89.1508 210 210 210 255
407.04 12.967 -85.2588 210 210 210 255
407.04 12.967 -81.368 210 210 210 255
407.04 12.967 -77.4785 210 210 210 255
407.04 12.967 -73.5901 210 210 210 255
407.04 12.967 -69.7032 210 210 210 255
407.04 12.967 -65.8177 210 210 210 255
407.04 12.967 -61.9334 210 210 210 255
407.04 12.967 -58.0506 210 210 210 255
407.04 12.967 -54.1694 210 210 210 255
407.04 12.967 -50.2895 210 210 210 255
407.04 12.967 -46.4111 210 210 210 255
407.04 12.967 -42.5344 210 210 210 255
407.04 12.967 -38.6593 210 210 210 255
407.04 12.967 -34.7858 210 210 210 255
407.04 12.967 -30.9136 210 210 210 255
407.04 12.967 -27.0435 210 210 210 255
407.04 12.967 -23.1747 210 210 210 255
407.04 12.967 -19.3079 210 210 210 255
407.04 12.967 -15.4427 210 210 210 255
407.04 12.967 -11.5792 210 210 210 255
407.04 12.967 -7.71777 210 210 210 255
407.04 12.967 -3.85791 210 210 210 255
407.04 12.967 6.10352e-05 210 210 210 255
406.869 16.4267 -762.183 210 210 210 255
406.869 16.4267 -758.618 210 210 210 255
406.869 16.4267 -755.049 210 210 210 255
406.869 16.4267 -751.474 210 210 210 255
406.869 16.4267 -747.894 210 210 210 255
406.869 16.4267 -744.309 210 210 210 255
406.869 16.4267 -740.718 210 210 210 255
406.869 16.4267 -737.123 210 210 210 255
406.869 16.4267 -733.522 210 210 210 255
406.869 16.4267 -729.916 210 210 210 255
406.869 16.4267 -726.306 210 210 210 255
406.869 16.4267 -722.69 210 210 210 255
406.869 16.4267 -719.069 210 210 210 255
406.869 16.4267 -715.444 210 210 210 255
406.869 16.4267 -711.814 210 210 210 255
406.869 16.4267 -708.179 210 210 210 255
406.869 16.4267 -704.539 210 210 210 255
406.869 16.4267 -700.894 210 210 210 255
406.869 16.4267 -697.245 210 210 210 255
406.869 16.4267 -693.591 210 210 210 255
406.869 16.4267 -689.933 210 210 210 255
406.869 16.4267 -686.27 210 210 210 255
406.869 16.4267 -682.603 210 210 210 255
406.869 16.4267 -678.932 210 210 210 255
406.869 16.4267 -675.255 210 210 210 255
406.869 16.4267 -671.575 210 210 210 255
406.869 16.4267 -667.89 210 210 210 255
406.869 16.4267 -664.201 210 210 210 255
406.869 16.4267 -660.508 210 210 210 255
406.869 16.4267 -656.811 210 210 210 255
406.869 16.4267 -653.109 210 210 210 255
406.869 16.4267 -649.404 210 210 210 255
406.869 16.4267 -645.694 210 210 210 255
406.869 16.4267 -641.981 210 210 210 255
406.869 16.4267 -638.263 210 210 210 255
406.869 16.4267 -634.542 210 210 210 255
406.869 16.4267 -630.816 210 210 210 255
406.869 16.4267 -627.087 210 210 210 255
406.869 16.4267 -623.354 210 210 210 255
406.869 16.4267 -619.618 210 210 210 255
406.869 16.4267 -615.877 210 210 210 255
406.869 16.4267 -612.133 210 210 210 255
406.869 16.4267 -608.385 210 210 210 255
406.869 16.4267 -604.634 210 210 210 255
406.869 16.4267 -600.879 210 210 210 255
406.869 16.4267 -597.121 210 210 210 255
406.869 16.4267 -593.359 210 210 210 255
406.869 16.4267 -589.594 210 210 210 255
406.869 16.4267 -585.825 210 210 210 255
406.869 16.4267 -582.053 210 210 210 255
406.869 16.4267 -578.278 210 210 210 255
406.869 16.4267 -574.5 210 210 210 255
406.869 16.4267 -570.718 210 210 210 255
406.869 16.4267 -566.933 210 210 210 255
406.869 16.4267 -563.145 210 210 210 255
406.869 16.4267 -559.354 210 210 210 255
406.869 16.4267 -555.56 210 210 210 255
406.869 16.4267 -551.763 210 210 210 255
406.869 16.4267 -547.963 210 210 210 255
406.869 16.4267 -544.16 210 210 210 255
406.869 16.4267 -540.354 210 210 210 255
406.869 16.4267 -536.545 210 210 210 255
406.869 16.4267 -532.734 210 210 210 255
406.869 16.4267 -528.919 210 210 210 255
406.869 16.4267 -525.102 210 210 210 255
406.869 16.4267 -521.283 210 210 210 255
406.869 16.4267 -517.46 210 210 210 255
406.869 16.4267 -513.635 210 210 210 255
406.869 16.4267 -509.808 210 210 210 255
406.869 16.4267 -505.977 210 210 210 255
406.869 16.4267 -502.145 210 210 210 255
406.869 16.4267 -498.31 210 210 210 255
406.869 16.4267 -494.472 210 210 210 255
406.869 16.4267 -490.632 210 210 210 255
406.869 16.4267 -486.79 210 210 210 255
406.869 16.4267 -482.945 210 210 210 255
406.869 16.4267 -479.099 210 210 210 255
406.869 16.4267 -475.25 210 210 210 255
406.869 16.4267 -471.398 210 210 210 255
406.869 16.4267 -467.545 210 210 210 255
406.869 16.4267 -463.69 210 210 210 255
406.869 16.4267 -459.832 210 210 210 255
406.869 16.4267 -455.972 210 210 210 255
406.869 16.4267 -452.111 210 210 210 255
406.869 16.4267 -448.247 210 210 210 255
406.869 16.4267 -444.382 210 210 210 255
406.869 16.4267 -440.514 210 210 210 255
406.869 16.4267 -436.645 210 210 210 255
406.869 16.4267 -432.774 210 210 210 255
406.869 16.4267 -428.901 210 210 210 255
406.869 16.4267 -425.027 210 210 210 255
406.869 16.4267 -421.151 210 210 210 255
406.869 16.4267 -417.273 210 210 210 255
406.869 16.4267 -413.393 210 210 210 255
406.869 16.4267 -409.512 210 210 210 255
406.869 16.4267 -405.63 210 210 210 255
406.869 16.4267 -401.746 210 210 210 255
406.869 16.4267 -397.86 210 210 210 255
406.869 16.4267 -393.973 210 210 210 255
406.869 16.4267 -390.084 210 210 210 255
406.869 16.4267 -386.195 210 210 210 255
406.869 16.4267 -382.303 210 210 210 255
406.869 16.4267 -378.411 210 210 210 255
406.869 16.4267 -374.517 210 210 210 255
406.869 16.4267 -370.622 210 210 210 255
406.869 16.4267 -366.726 210 210 210 255
406.869 16.4267 -362.829 210 210 210 255
406.869 16.4267 -358.93 210 210 210 255
406.869 16.4267 -355.031 210 210 210 255
406.869 16.4267 -351.13 210 210 210 255
406.869 16.4267 -347.229 210 210 210 255
406.869 16.4267 -343.326 210 210 210 255
406.869 16.4267 -339.423 210 210 210 255
406.869 16.4267 -335.518 210 210 210 255
406.869 16.4267 -331.613 210 210 210 255
406.869 16.4267 -327.707 210 210 210 255
406.869 16.4267 -323.8 210 210 210 255
406.869 16.4267 -319.893 210 210 210 255
406.869 16.4267 -315.984 210 210 210 255
406.869 16.4267 -312.075 210 210 210 255
406.869 16.4267 -308.166 210 210 210 255
406.869 16.4267 -304.255 210 210 210 255
406.869 16.4267 -300.344 210 210 210 255
406.869 16.4267 -296.433 210 210 210 255
406.869 16.4267 -292.521 210 210 210 255
406.869 16.4267 -288.608 210 210 210 255
406.869 16.4267 -284.695 210 210 210 255
406.869 16.4267 -280.782 210 210 210 255
406.869 16.4267 -276.868 210 210 210 255
406.869 16.4267 -272.954 210 210 210 255
406.869 16.4267 -269.04 210 210 210 255
406.869 16.4267 -265.125 210 210 210 255
406.869 16.4267 -261.21 210 210 210 255
406.869 16.4267 -257.295 210 210 210 255
406.869 16.4267 -253.38 210 210 210 255
406.869 16.4267 -249.464 210 210 210 255
406.869 16.4267 -245.548 210 210 210 255
406.869 16.4267 -241.633 210 210 210 255
406.869 16.4267 -237.717 210 210 210 255
406.869 16.4267 -233.801 210 210 210 255
406.869 16.4267 -229.885 210 210 210 255
406.869 16.4267 -225.969 210 210 210 255
406.869 16.4267 -222.054 210 210 210 255
406.869 16.4267 -218.138 210 210 210 255
406.869 16.4267 -214.223 210 210 210 255
406.869 16.4267 -210.307 210 210 210 255
406.869 16.4267 -206.392 210 210 210 255
406.869 16.4267 -202.477 210 210 210 255
406.869 16.4267 -198.563 210 210 210 255
406.869 16.4267 -194.649 210 210 210 255
406.869 16.4267 -190.735 210 210 210 255
406.869 16.4267 -186.821 210 210 210 255
406.869 16.4267 -182.908 210 210 210 255
406.869 16.4267 -178.995 210 210 210 255
406.869 16.4267 -175.083 210 210 210 255
406.869 16.4267 -171.171 210 210 210 255
406.869 16.4267 -167.26 210 210 210 255
406.869 16.4267 -163.349 210 210 210 255
406.869 16.4267 -159.439 210 210 210 255
406.869 16.4267 -155.53 210 210 210 255
406.869 16.4267 -151.621 210 210 210 255
406.869 16.4267 -147.713 210 210 210 255
406.869 16.4267 -143.805 210 210 210 255
406.869 16.4267 -139.899 210 210 210 255
406.869 16.4267 -135.993 210 210 210 255
406.869 16.4267 -132.087 210 210 210 255
406.869 16.4267 -128.183 210 210 210 255
406.869 16.4267 -124.28 210 210 210 255
406.869 16.4267 -120.377 210 210 210 255
406.869 16.4267 -116.476 210 210 210 255
406.869 16.4267 -112.575 210 210 210 255
406.869 16.4267 -108.675 210 210 210 255
406.869 16.4267 -104.776 210 210 210 255
406.869 16.4267 -100.879 210 210 210 255
406.869 16.4267 -96.9821 210 210 210 255
406.869 16.4267 -93.0865 210 210 210 255
406.869 16.4267 -89.1922 210 210 210 255
406.869 16.4267 -85.299 210 210 210 255
406.869 16.4267 -81.407 210 210 210 255
406.869 16.4267 -77.5162 210 210 210 255
406.869 16.4267 -73.6266 210 210 210 255
406.869 16.4267 -69.7384 210 210 210 255
406.869 16.4267 -65.8513 210 210 210 255
406.869 16.4267 -61.9657 210 210 210 255
406.869 16.4267 -58.0815 210 210 210 255
406.869 16.4267 -54.1985 210 210 210 255
406.869 16.4267 -50.3171 210 210 210 255
406.869 16.4267 -46.4372 210 210 210 255
406.869 16.4267 -42.5584 210 210 210 255
406.869 16.4267 -38.6815 210 210 210 255
406.869 16.4267 -34.806 210 210 210 255
406.869 16.4267 -30.9321 210 210 210 255
406.869 16.4267 -27.0596 210 210 210 255
406.869 16.4267 -23.189 210 210 210 255
406.869 16.4267 -19.3199 210 210 210 255
406.869 16.4267 -15.4525 210 210 210 255
406.869 16.4267 -11.5867 210 210 210 255
406.869 16.4267 -7.72266 210 210 210 255
406.869 16.4267 -3.8606 210 210 210 255
406.869 16.4267 6.10352e-05 210 210 210 255
406.663 19.8837 -762.227 210 210 210 255
406.663 19.8837 -758.662 210 210 210 255
406.663 19.8837 -755.092 210 210 210 255
406.663 19.8837 -751.516 210 210 210 255
406.663 19.8837 -747.935 210 210 210 255
406.663 19.8837 -744.349 210 210 210 255
406.663 19.8837 -740.758 210 210 210 255
406.663 19.8837 -737.161 210 210 210 255
406.663 19.8837 -733.56 210 210 210 255
406.663 19.8837 -729.953 210 210 210 255
406.663 19.8837 -726.342 210 210 210 255
406.663 19.8837 -722.725 210 210 210 255
406.663 19.8837 -719.104 210 210 210 255
406.663 19.8837 -715.478 210 210 210 255
406.663 19.8837 -711.847 210 210 210 255
406.663 19.8837 -708.211 210 210 210 255
406.663 19.8837 -704.571 210 210 210 255
406.663 19.8837 -700.926 210 210 210 255
406.663 19.8837 -697.276 210 210 210 255
406.663 19.8837 -693.622 210 210 210 255
406.663 19.8837 -689.963 210 210 210 255
406.663 19.8837 -686.299 210 210 210 255
406.663 19.8837 -682.632 210 210 210 255
406.663 19.8837 -678.959 210 210 210 255
406.663 19.8837 -675.283 210 210 210 255
406.663 19.8837 -671.602 210 210 210 255
406.663 19.8837 -667.917 210 210 210 255
406.663 19.8837 -664.227 210 210 210 255
406.663 19.8837 -660.534 210 210 210 255
406.663 19.8837 -656.836 210 210 210 255
406.663 19.8837 -653.134 210 210 210 255
406.663 19.8837 -649.428 210 210 210 255
406.663 19.8837 -645.718 210 210 210 255
406.663 19.8837 -642.004 210 210 210 255
406.663 19.8837 -638.286 210 210 210 255
406.663 19.8837 -634.564 210 210 210 255
406.663 19.8837 -630.839 210 210 210 255
406.663 19.8837 -627.109 210 210 210 255
406.663 19.8837 -623.376 210 210 210 255
406.663 19.8837 -619.639 210 210 210 255
406.663 19.8837 -615.899 210 210 210 255
406.663 19.8837 -612.154 210 210 210 255
406.663 19.8837 -608.406 210 210 210 255
406.663 19.8837 -604.655 210 210 210 255
406.663 19.8837 -600.9 210 210 210 255
406.663 19.8837 -597.141 210 210 210 255
406.663 19.8837 -593.38 210 210 210 255
406.663 19.8837 -589.614 210 210 210 255
406.663 19.8837 -585.846 210 210 210 255
406.663 19.8837 -582.074 210 210 210 255
406.663 19.8837 -578.298 210 210 210 255
406.663 19.8837 -574.52 210 210 210 255
406.663 19.8837 -570.738 210 210 210 255
406.663 19.8837 -566.953 210 210 210 255
406.663 19.8837 -563.165 210 210 210 255
406.663 19.8837 -559.374 210 210 210 255
406.663 19.8837 -555.58 210 210 210 255
406.663 19.8837 -551.783 210 210 210 255
406.663 19.8837 -547.983 210 210 210 255
406.663 19.8837 -544.18 210 210 210 255
406.663 19.8837 -540.374 210 210 210 255
406.663 19.8837 -536.566 210 210 210 255
406.663 19.8837 -532.754 210 210 210 255
406.663 19.8837 -528.94 210 210 210 255
406.663 19.8837 -525.123 210 210 210 255
406.663 19.8837 -521.304 210 210 210 255
406.663 19.8837 -517.481 210 210 210 255
406.663 19.8837 -513.656 210 210 210 255
406.663 19.8837 -509.829 210 210 210 255
406.663 19.8837 -505.999 210 210 210 255
406.663 19.8837 -502.167 210 210 210 255
406.663 19.8837 -498.332 210 210 210 255
406.663 19.8837 -494.495 210 210 210 255
406.663 19.8837 -490.655 210 210 210 255
406.663 19.8837 -486.813 210 210 210 255
406.663 19.8837 -482.969 210 210 210 255
406.663 19.8837 -479.122 210 210 210 255
406.663 19.8837 -475.274 210 210 210 255
406.663 19.8837 -471.423 210 210 210 255
406.663 19.8837 -467.57 210 210 210 255
406.663 19.8837 -463.715 210 210 210 255
406.663 19.8837 -459.858 210 210 210 255
406.663 19.8837 -455.998 210 210 210 255
406.663 19.8837 -452.137 210 210 210 255
406.663 19.8837 -448.274 210 210 210 255
406.663 19.8837 -444.409 210 210 210 255
406.663 19.8837 -440.542 210 210 210 255
406.663 19.8837 -436.673 210 210 210 255
406.663 19.8837 -432.803 210 210 210 255
406.663 19.8837 -428.93 210 210 210 255
406.663 19.8837 -425.056 210 210 210 255
406.663 19.8837 -421.181 210 210 210 255
406.663 19.8837 -417.303 210 210 210 255
406.663 19.8837 -413.424 210 210 210 255
406.663 19.8837 -409.544 210 210 210 255
406.663 19.8837 -405.661 210 210 210 255
406.663 19.8837 -401.778 210 210 210 255
406.663 19.8837 -397.893 210 210 210 255
406.663 19.8837 -394.006 210 210 210 255
406.663 19.8837 -390.118 210 210 210 255
406.663 19.8837 -386.229 210 210 210 255
406.663 19.8837 -382.338 210 210 210 255
406.663 19.8837 -378.446 210 210 210 255
406.663 19.8837 -374.553 210 210 210 255
406.663 19.8837 -370.659 210 210 210 255
406.663 19.8837 -366.763 210 210 210 255
406.663 19.8837 -362.866 210 210 210 255
406.663 19.8837 -358.968 210 210 210 255
406.663 19.8837 -355.07 210 210 210 255
406.663 19.8837 -351.169 210 210 210 255
406.663 19.8837 -347.268 210 210 210 255
406.663 19.8837 -343.366 210 210 210 255
406.663 19.8837 -339.464 210 210 210 255
406.663 19.8837 -335.56 210 210 210 255
406.663 19.8837 -331.655 210 210 210 255
406.663 19.8837 -327.749 210 210 210 255
406.663 19.8837 -323.843 210 210 210 255
