ply
format ascii 1.0
element vertex 1260
property float x
property float y
property float z
property uchar red
property uchar green
property uchar blue
property uchar alpha
end_header
224.998 161.168 -482.088 210 210 210 255
224.998 161.168 -475.487 210 210 210 255
224.998 161.168 -468.896 210 210 210 255
224.998 161.168 -462.313 210 210 210 255
224.998 161.168 -455.74 210 210 210 255
224.998 161.168 -449.175 210 210 210 255
224.998 161.168 -442.618 210 210 210 255
224.998 161.168 -436.069 210 210 210 255
224.998 161.168 -429.528 210 210 210 255
224.998 161.168 -422.995 210 210 210 255
224.998 161.168 -416.469 210 210 210 255
224.998 161.168 -409.951 210 210 210 255
224.998 161.168 -403.439 210 210 210 255
224.998 161.168 -396.935 210 210 210 255
224.998 161.168 -390.436 210 210 210 255
224.998 161.168 -383.945 210 210 210 255
224.998 161.168 -377.459 210 210 210 255
224.998 161.168 -370.98 210 210 210 255
224.998 161.168 -364.506 210 210 210 255
224.998 161.168 -358.038 210 210 210 255
224.998 161.168 -351.575 210 210 210 255
224.998 161.168 -345.118 210 210 210 255
224.998 161.168 -338.666 210 210 210 255
224.998 161.168 -332.218 210 210 210 255
224.998 161.168 -325.775 210 210 210 255
224.998 161.168 -319.337 210 210 210 255
224.998 161.168 -312.903 210 210 210 255
224.998 161.168 -306.473 210 210 210 255
224.998 161.168 -300.048 210 210 210 255
224.998 161.168 -293.626 210 210 210 255
224.998 161.168 -287.208 210 210 210 255
224.998 161.168 -280.793 210 210 210 255
224.998 161.168 -274.381 210 210 210 255
224.998 161.168 -267.973 210 210 210 255
224.998 161.168 -261.568 210 210 210 255
224.998 161.168 -255.166 210 210 210 255
224.998 161.168 -248.766 210 210 210 255
224.998 161.168 -242.369 210 210 210 255
224.998 161.168 -235.975 210 210 210 255
224.998 161.168 -229.583 210 210 210 255
224.998 161.168 -223.193 210 210 210 255
224.998 161.168 -216.805 210 210 210 255
224.998 161.168 -210.419 210 210 210 255
224.998 161.168 -204.034 210 210 210 255
224.998 161.168 -197.652 210 210 210 255
224.998 161.168 -191.27 210 210 210 255
224.998 161.168 -184.891 210 210 210 255
224.998 161.168 -178.512 210 210 210 255
224.998 161.168 -172.135 210 210 210 255
224.998 161.168 -165.758 210 210 210 255
224.998 161.168 -159.383 210 210 210 255
224.998 161.168 -153.008 210 210 210 255
224.998 161.168 -146.634 210 210 210 255
224.998 161.168 -140.26 210 210 210 255
224.998 161.168 -133.887 210 210 210 255
224.998 161.168 -127.514 210 210 210 255
224.998 161.168 -121.142 210 210 210 255
224.998 161.168 -114.77 210 210 210 255
224.998 161.168 -108.397 210 210 210 255
224.998 161.168 -102.025 210 210 210 255
224.998 161.168 -95.6529 210 210 210 255
224.998 161.168 -89.2803 210 210 210 255
224.998 161.168 -82.9075 210 210 210 255
224.998 161.168 -76.5343 210 210 210 255
224.998 161.168 -70.1606 210 210 210 255
224.998 161.168 -63.7865 210 210 210 255
224.998 161.168 -57.4117 210 210 210 255
224.998 161.168 -51.0362 210 210 210 255
224.998 161.168 -44.6599 210 210 210 255
224.998 161.168 -38.2829 210 210 210 255
224.998 161.168 -31.905 210 210 210 255
224.998 161.168 -25.5261 210 210 210 255
224.998 161.168 -19.1462 210 210 210 255
224.998 161.168 -12.7653 210 210 210 255
224.998 161.168 -6.38324 210 210 210 255
224.998 161.168 0 210 210 210 255
224.999 165.724 -643.088 210 210 210 255
224.999 165.724 -636.223 210 210 210 255
224.999 165.724 -629.373 210 210 210 255
224.999 165.724 -622.537 210 210 210 255
224.999 165.724 -615.715 210 210 210 255
224.999 165.724 -608.906 210 210 210 255
224.999 165.724 -602.111 210 210 210 255
224.999 165.724 -595.33 210 210 210 255
224.999 165.724 -588.561 210 210 210 255
224.999 165.724 -581.805 210 210 210 255
224.999 165.724 -575.061 210 210 210 255
224.999 165.724 -568.33 210 210 210 255
224.999 165.724 -561.61 210 210 210 255
224.999 165.724 -554.902 210 210 210 255
224.999 165.724 -548.205 210 210 210 255
224.999 165.724 -541.52 210 210 210 255
224.999 165.724 -534.846 210 210 210 255
224.999 165.724 -528.182 210 210 210 255
224.999 165.724 -521.529 210 210 210 255
224.999 165.724 -514.886 210 210 210 255
224.999 165.724 -508.253 210 210 210 255
224.999 165.724 -501.63 210 210 210 255
224.999 165.724 -495.016 210 210 210 255
224.999 165.724 -488.411 210 210 210 255
224.999 165.724 -481.816 210 210 210 255
224.999 165.724 -475.23 210 210 210 255
224.999 165.724 -468.652 210 210 210 255
224.999 165.724 -462.083 210 210 210 255
224.999 165.724 -455.522 210 210 210 255
224.999 165.724 -448.969 210 210 210 255
224.999 165.724 -442.423 210 210 210 255
224.999 165.724 -435.886 210 210 210 255
224.999 165.724 -429.355 210 210 210 255
224.999 165.724 -422.832 210 210 210 255
224.999 165.724 -416.316 210 210 210 255
224.999 165.724 -409.807 210 210 210 255
224.999 165.724 -403.304 210 210 210 255
224.999 165.724 -396.808 210 210 210 255
224.999 165.724 -390.318 210 210 210 255
224.999 165.724 -383.834 210 210 210 255
224.999 165.724 -377.355 210 210 210 255
224.999 165.724 -370.883 210 210 210 255
224.999 165.724 -364.415 210 210 210 255
224.999 165.724 -357.954 210 210 210 255
224.999 165.724 -351.497 210 210 210 255
224.999 165.724 -345.045 210 210 210 255
224.999 165.724 -338.598 210 210 210 255
224.999 165.724 -332.155 210 210 210 255
224.999 165.724 -325.717 210 210 210 255
224.999 165.724 -319.283 210 210 210 255
224.999 165.724 -312.854 210 210 210 255
224.999 165.724 -306.428 210 210 210 255
224.999 165.724 -300.006 210 210 210 255
224.999 165.724 -293.587 210 210 210 255
224.999 165.724 -287.172 210 210 210 255
224.999 165.724 -280.761 210 210 210 255
224.999 165.724 -274.352 210 210 210 255
224.999 165.724 -267.947 210 210 210 255
224.999 165.724 -261.544 210 210 210 255
224.999 165.724 -255.144 210 210 210 255
224.999 165.724 -248.747 210 210 210 255
224.999 165.724 -242.352 210 210 210 255
224.999 165.724 -235.959 210 210 210 255
224.999 165.724 -229.568 210 210 210 255
224.999 165.724 -223.18 210 210 210 255
224.999 165.724 -216.793 210 210 210 255
224.999 165.724 -210.409 210 210 210 255
224.999 165.724 -204.025 210 210 210 255
224.999 165.724 -197.644 210 210 210 255
224.999 165.724 -191.263 210 210 210 255
224.999 165.724 -184.884 210 210 210 255
224.999 165.724 -178.507 210 210 210 255
224.999 165.724 -172.13 210 210 210 255
224.999 165.724 -165.754 210 210 210 255
224.999 165.724 -159.379 210 210 210 255
224.999 165.724 -153.005 210 210 210 255
224.999 165.724 -146.631 210 210 210 255
224.999 165.724 -140.258 210 210 210 255
224.999 165.724 -133.885 210 210 210 255
224.999 165.724 -127.513 210 210 210 255
224.999 165.724 -121.141 210 210 210 255
224.999 165.724 -114.769 210 210 210 255
224.999 165.724 -108.397 210 210 210 255
224.999 165.724 -102.025 210 210 210 255
224.999 165.724 -95.6524 210 210 210 255
224.999 165.724 -89.28 210 210 210 255
224.999 165.724 -82.9072 210 210 210 255
224.999 165.724 -76.5341 210 210 210 255
224.999 165.724 -70.1605 210 210 210 255
224.999 165.724 -63.7863 210 210 210 255
224.999 165.724 -57.4116 210 210 210 255
224.999 165.724 -51.0361 210 210 210 255
224.999 165.724 -44.6599 210 210 210 255
224.999 165.724 -38.2829 210 210 210 255
224.999 165.724 -31.905 210 210 210 255
224.999 165.724 -25.5261 210 210 210 255
224.999 165.724 -19.1462 210 210 210 255
224.999 165.724 -12.7653 210 210 210 255
224.999 165.724 -6.38324 210 210 210 255
224.999 165.724 0 210 210 210 255
224.999 170.28 -642.312 210 210 210 255
224.999 170.28 -635.478 210 210 210 255
224.999 170.28 -628.657 210 210 210 255
224.999 170.28 -621.85 210 210 210 255
224.999 170.28 -615.056 210 210 210 255
224.999 170.28 -608.275 210 210 210 255
224.999 170.28 -601.507 210 210 210 255
224.999 170.28 -594.75 210 210 210 255
224.999 170.28 -588.006 210 210 210 255
224.999 170.28 -581.274 210 210 210 255
224.999 170.28 -574.554 210 210 210 255
224.999 170.28 -567.845 210 210 210 255
224.999 170.28 -561.147 210 210 210 255
224.999 170.28 -554.46 210 210 210 255
224.999 170.28 -547.783 210 210 210 255
224.999 170.28 -541.117 210 210 210 255
224.999 170.28 -534.462 210 210 210 255
224.999 170.28 -527.816 210 210 210 255
224.999 170.28 -521.181 210 210 210 255
224.999 170.28 -514.555 210 210 210 255
224.999 170.28 -507.938 210 210 210 255
224.999 170.28 -501.33 210 210 210 255
224.999 170.28 -494.732 210 210 210 255
224.999 170.28 -488.142 210 210 210 255
224.999 170.28 -481.56 210 210 210 255
224.999 170.28 -474.987 210 210 210 255
224.999 170.28 -468.422 210 210 210 255
224.999 170.28 -461.865 210 210 210 255
224.999 170.28 -455.316 210 210 210 255
224.999 170.28 -448.774 210 210 210 255
224.999 170.28 -442.24 210 210 210 255
224.999 170.28 -435.713 210 210 210 255
224.999 170.28 -429.192 210 210 210 255
224.999 170.28 -422.679 210 210 210 255
224.999 170.28 -416.172 210 210 210 255
224.999 170.28 -409.671 210 210 210 255
224.999 170.28 -403.177 210 210 210 255
224.999 170.28 -396.688 210 210 210 255
224.999 170.28 -390.206 210 210 210 255
224.999 170.28 -383.729 210 210 210 255
224.999 170.28 -377.257 210 210 210 255
224.999 170.28 -370.791 210 210 210 255
224.999 170.28 -364.33 210 210 210 255
224.999 170.28 -357.874 210 210 210 255
224.999 170.28 -351.423 210 210 210 255
224.999 170.28 -344.976 210 210 210 255
224.999 170.28 -338.534 210 210 210 255
224.999 170.28 -332.096 210 210 210 255
224.999 170.28 -325.663 210 210 210 255
224.999 170.28 -319.233 210 210 210 255
224.999 170.28 -312.807 210 210 210 255
224.999 170.28 -306.385 210 210 210 255
224.999 170.28 -299.966 210 210 210 255
224.999 170.28 -293.551 210 210 210 255
224.999 170.28 -287.139 210 210 210 255
224.999 170.28 -280.73 210 210 210 255
224.999 170.28 -274.324 210 210 210 255
224.999 170.28 -267.921 210 210 210 255
224.999 170.28 -261.521 210 210 210 255
224.999 170.28 -255.123 210 210 210 255
224.999 170.28 -248.728 210 210 210 255
224.999 170.28 -242.335 210 210 210 255
224.999 170.28 -235.944 210 210 210 255
224.999 170.28 -229.555 210 210 210 255
224.999 170.28 -223.168 210 210 210 255
224.999 170.28 -216.783 210 210 210 255
224.999 170.28 -210.399 210 210 210 255
224.999 170.28 -204.017 210 210 210 255
224.999 170.28 -197.636 210 210 210 255
224.999 170.28 -191.257 210 210 210 255
224.999 170.28 -184.879 210 210 210 255
224.999 170.28 -178.502 210 210 210 255
224.999 170.28 -172.126 210 210 210 255
224.999 170.28 -165.75 210 210 210 255
224.999 170.28 -159.376 210 210 210 255
224.999 170.28 -153.002 210 210 210 255
224.999 170.28 -146.629 210 210 210 255
224.999 170.28 -140.256 210 210 210 255
224.999 170.28 -133.884 210 210 210 255
224.999 170.28 -127.512 210 210 210 255
224.999 170.28 -121.14 210 210 210 255
224.999 170.28 -114.768 210 210 210 255
224.999 170.28 -108.396 210 210 210 255
224.999 170.28 -102.024 210 210 210 255
224.999 170.28 -95.652 210 210 210 255
224.999 170.28 -89.2797 210 210 210 255
224.999 170.28 -82.907 210 210 210 255
224.999 170.28 -76.5339 210 210 210 255
224.999 170.28 -70.1604 210 210 210 255
224.999 170.28 -63.7863 210 210 210 255
224.999 170.28 -57.4116 210 210 210 255
224.999 170.28 -51.0361 210 210 210 255
224.999 170.28 -44.6599 210 210 210 255
224.999 170.28 -38.2829 210 210 210 255
224.999 170.28 -31.905 210 210 210 255
224.999 170.28 -25.5261 210 210 210 255
224.999 170.28 -19.1462 210 210 210 255
224.999 170.28 -12.7653 210 210 210 255
224.999 170.28 -6.38324 210 210 210 255
224.999 170.28 0 210 210 210 255
224.999 174.837 -641.589 210 210 210 255
224.999 174.837 -634.783 210 210 210 255
224.999 174.837 -627.991 210 210 210 255
224.999 174.837 -621.211 210 210 210 255
224.999 174.837 -614.443 210 210 210 255
224.999 174.837 -607.687 210 210 210 255
224.999 174.837 -600.943 210 210 210 255
224.999 174.837 -594.211 210 210 210 255
224.999 174.837 -587.49 210 210 210 255
224.999 174.837 -580.78 210 210 210 255
224.999 174.837 -574.081 210 210 210 255
224.999 174.837 -567.393 210 210 210 255
224.999 174.837 -560.715 210 210 210 255
224.999 174.837 -554.048 210 210 210 255
224.999 174.837 -547.39 210 210 210 255
224.999 174.837 -540.743 210 210 210 255
224.999 174.837 -534.105 210 210 210 255
224.999 174.837 -527.476 210 210 210 255
224.999 174.837 -520.857 210 210 210 255
224.999 174.837 -514.246 210 210 210 255
224.999 174.837 -507.645 210 210 210 255
224.999 174.837 -501.052 210 210 210 255
224.999 174.837 -494.467 210 210 210 255
224.999 174.837 -487.891 210 210 210 255
224.999 174.837 -481.322 210 210 210 255
224.999 174.837 -474.762 210 210 210 255
224.999 174.837 -468.209 210 210 210 255
224.999 174.837 -461.663 210 210 210 255
224.999 174.837 -455.125 210 210 210 255
224.999 174.837 -448.594 210 210 210 255
224.999 174.837 -442.069 210 210 210 255
224.999 174.837 -435.552 210 210 210 255
224.999 174.837 -429.041 210 210 210 255
224.999 174.837 -422.536 210 210 210 255
224.999 174.837 -416.037 210 210 210 255
224.999 174.837 -409.545 210 210 210 255
224.999 174.837 -403.058 210 210 210 255
224.999 174.837 -396.577 210 210 210 255
224.999 174.837 -390.101 210 210 210 255
224.999 174.837 -383.631 210 210 210 255
224.999 174.837 -377.166 210 210 210 255
224.999 174.837 -370.706 210 210 210 255
224.999 174.837 -364.251 210 210 210 255
224.999 174.837 -357.8 210 210 210 255
224.999 174.837 -351.354 210 210 210 255
224.999 174.837 -344.912 210 210 210 255
224.999 174.837 -338.475 210 210 210 255
224.999 174.837 -332.041 210 210 210 255
224.999 174.837 -325.612 210 210 210 255
224.999 174.837 -319.186 210 210 210 255
224.999 174.837 -312.764 210 210 210 255
224.999 174.837 -306.345 210 210 210 255
224.999 174.837 -299.93 210 210 210 255
224.999 174.837 -293.517 210 210 210 255
224.999 174.837 -287.108 210 210 210 255
224.999 174.837 -280.702 210 210 210 255
224.999 174.837 -274.299 210 210 210 255
224.999 174.837 -267.898 210 210 210 255
224.999 174.837 -261.5 210 210 210 255
224.999 174.837 -255.104 210 210 210 255
224.999 174.837 -248.71 210 210 210 255
224.999 174.837 -242.319 210 210 210 255
224.999 174.837 -235.93 210 210 210 255
224.999 174.837 -229.542 210 210 210 255
224.999 174.837 -223.156 210 210 210 255
224.999 174.837 -216.772 210 210 210 255
224.999 174.837 -210.39 210 210 210 255
224.999 174.837 -204.009 210 210 210 255
224.999 174.837 -197.629 210 210 210 255
224.999 174.837 -191.251 210 210 210 255
224.999 174.837 -184.873 210 210 210 255
224.999 174.837 -178.497 210 210 210 255
224.999 174.837 -172.122 210 210 210 255
224.999 174.837 -165.747 210 210 210 255
224.999 174.837 -159.373 210 210 210 255
224.999 174.837 -153 210 210 210 255
224.999 174.837 -146.627 210 210 210 255
224.999 174.837 -140.254 210 210 210 255
224.999 174.837 -133.882 210 210 210 255
224.999 174.837 -127.51 210 210 210 255
224.999 174.837 -121.139 210 210 210 255
224.999 174.837 -114.767 210 210 210 255
224.999 174.837 -108.395 210 210 210 255
224.999 174.837 -102.024 210 210 210 255
224.999 174.837 -95.6517 210 210 210 255
224.999 174.837 -89.2794 210 210 210 255
224.999 174.837 -82.9068 210 210 210 255
224.999 174.837 -76.5338 210 210 210 255
224.999 174.837 -70.1603 210 210 210 255
224.999 174.837 -63.7863 210 210 210 255
224.999 174.837 -57.4115 210 210 210 255
224.999 174.837 -51.0361 210 210 210 255
224.999 174.837 -44.6599 210 210 210 255
224.999 174.837 -38.2829 210 210 210 255
224.999 174.837 -31.9049 210 210 210 255
224.999 174.837 -25.5261 210 210 210 255
224.999 174.837 -19.1462 210 210 210 255
224.999 174.837 -12.7653 210 210 210 255
224.999 174.837 -6.38324 210 210 210 255
224.999 174.837 0 210 210 210 255
225 179.394 -640.925 210 210 210 255
225 179.394 -634.146 210 210 210 255
225 179.394 -627.379 210 210 210 255
225 179.394 -620.624 210 210 210 255
225 179.394 -613.88 210 210 210 255
225 179.394 -607.148 210 210 210 255
225 179.394 -600.427 210 210 210 255
225 179.394 -593.716 210 210 210 255
225 179.394 -587.016 210 210 210 255
225 179.394 -580.327 210 210 210 255
225 179.394 -573.648 210 210 210 255
225 179.394 -566.979 210 210 210 255
225 179.394 -560.32 210 210 210 255
225 179.394 -553.67 210 210 210 255
225 179.394 -547.03 210 210 210 255
225 179.394 -540.399 210 210 210 255
225 179.394 -533.777 210 210 210 255
225 179.394 -527.164 210 210 210 255
225 179.394 -520.559 210 210 210 255
225 179.394 -513.963 210 210 210 255
225 179.394 -507.376 210 210 210 255
225 179.394 -500.796 210 210 210 255
225 179.394 -494.224 210 210 210 255
225 179.394 -487.66 210 210 210 255
225 179.394 -481.104 210 210 210 255
225 179.394 -474.555 210 210 210 255
225 179.394 -468.013 210 210 210 255
225 179.394 -461.478 210 210 210 255
225 179.394 -454.949 210 210 210 255
225 179.394 -448.428 210 210 210 255
225 179.394 -441.913 210 210 210 255
225 179.394 -435.404 210 210 210 255
225 179.394 -428.902 210 210 210 255
225 179.394 -422.405 210 210 210 255
225 179.394 -415.914 210 210 210 255
225 179.394 -409.429 210 210 210 255
225 179.394 -402.949 210 210 210 255
225 179.394 -396.475 210 210 210 255
225 179.394 -390.006 210 210 210 255
225 179.394 -383.542 210 210 210 255
225 179.394 -377.082 210 210 210 255
225 179.394 -370.628 210 210 210 255
225 179.394 -364.178 210 210 210 255
225 179.394 -357.732 210 210 210 255
225 179.394 -351.291 210 210 210 255
225 179.394 -344.853 210 210 210 255
225 179.394 -338.42 210 210 210 255
225 179.394 -331.991 210 210 210 255
225 179.394 -325.565 210 210 210 255
225 179.394 -319.143 210 210 210 255
225 179.394 -312.724 210 210 210 255
225 179.394 -306.308 210 210 210 255
225 179.394 -299.896 210 210 210 255
225 179.394 -293.487 210 210 210 255
225 179.394 -287.08 210 210 210 255
225 179.394 -280.676 210 210 210 255
225 179.394 -274.275 210 210 210 255
225 179.394 -267.876 210 210 210 255
225 179.394 -261.48 210 210 210 255
225 179.394 -255.086 210 210 210 255
225 179.394 -248.694 210 210 210 255
225 179.394 -242.305 210 210 210 255
225 179.394 -235.917 210 210 210 255
225 179.394 -229.531 210 210 210 255
225 179.394 -223.146 210 210 210 255
225 179.394 -216.763 210 210 210 255
225 179.394 -210.382 210 210 210 255
225 179.394 -204.002 210 210 210 255
225 179.394 -197.623 210 210 210 255
225 179.394 -191.245 210 210 210 255
225 179.394 -184.869 210 210 210 255
225 179.394 -178.493 210 210 210 255
225 179.394 -172.118 210 210 210 255
225 179.394 -165.744 210 210 210 255
225 179.394 -159.37 210 210 210 255
225 179.394 -152.997 210 210 210 255
225 179.394 -146.625 210 210 210 255
225 179.394 -140.253 210 210 210 255
225 179.394 -133.881 210 210 210 255
225 179.394 -127.509 210 210 210 255
225 179.394 -121.138 210 210 210 255
225 179.394 -114.766 210 210 210 255
225 179.394 -108.395 210 210 210 255
225 179.394 -102.023 210 210 210 255
225 179.394 -95.6513 210 210 210 255
225 179.394 -89.2791 210 210 210 255
225 179.394 -82.9066 210 210 210 255
225 179.394 -76.5336 210 210 210 255
225 179.394 -70.1602 210 210 210 255
225 179.394 -63.7861 210 210 210 255
225 179.394 -57.4114 210 210 210 255
225 179.394 -51.036 210 210 210 255
225 179.394 -44.6599 210 210 210 255
225 179.394 -38.2829 210 210 210 255
225 179.394 -31.9049 210 210 210 255
225 179.394 -25.5261 210 210 210 255
225 179.394 -19.1462 210 210 210 255
225 179.394 -12.7653 210 210 210 255
225 179.394 -6.38324 210 210 210 255
225 179.394 0 210 210 210 255
225 183.951 -640.327 210 210 210 255
225 183.951 -633.572 210 210 210 255
225 183.951 -626.828 210 210 210 255
225 183.951 -620.096 210 210 210 255
225 183.951 -613.374 210 210 210 255
225 183.951 -606.662 210 210 210 255
225 183.951 -599.961 210 210 210 255
225 183.951 -593.271 210 210 210 255
225 183.951 -586.59 210 210 210 255
225 183.951 -579.919 210 210 210 255
225 183.951 -573.258 210 210 210 255
225 183.951 -566.606 210 210 210 255
225 183.951 -559.963 210 210 210 255
225 183.951 -553.33 210 210 210 255
225 183.951 -546.705 210 210 210 255
225 183.951 -540.089 210 210 210 255
225 183.951 -533.482 210 210 210 255
225 183.951 -526.882 210 210 210 255
225 183.951 -520.291 210 210 210 255
225 183.951 -513.708 210 210 210 255
225 183.951 -507.133 210 210 210 255
225 183.951 -500.566 210 210 210 255
225 183.951 -494.005 210 210 210 255
225 183.951 -487.453 210 210 210 255
225 183.951 -480.907 210 210 210 255
225 183.951 -474.368 210 210 210 255
225 183.951 -467.836 210 210 210 255
225 183.951 -461.31 210 210 210 255
225 183.951 -454.791 210 210 210 255
225 183.951 -448.278 210 210 210 255
225 183.951 -441.772 210 210 210 255
225 183.951 -435.271 210 210 210 255
225 183.951 -428.776 210 210 210 255
225 183.951 -422.287 210 210 210 255
225 183.951 -415.803 210 210 210 255
225 183.951 -409.325 210 210 210 255
225 183.951 -402.851 210 210 210 255
225 183.951 -396.383 210 210 210 255
225 183.951 -389.92 210 210 210 255
225 183.951 -383.461 210 210 210 255
225 183.951 -377.007 210 210 210 255
225 183.951 -370.557 210 210 210 255
225 183.951 -364.112 210 210 210 255
225 183.951 -357.671 210 210 210 255
225 183.951 -351.234 210 210 210 255
225 183.951 -344.8 210 210 210 255
225 183.951 -338.371 210 210 210 255
225 183.951 -331.945 210 210 210 255
225 183.951 -325.523 210 210 210 255
225 183.951 -319.104 210 210 210 255
225 183.951 -312.688 210 210 210 255
225 183.951 -306.275 210 210 210 255
225 183.951 -299.865 210 210 210 255
225 183.951 -293.459 210 210 210 255
225 183.951 -287.054 210 210 210 255
225 183.951 -280.653 210 210 210 255
225 183.951 -274.254 210 210 210 255
225 183.951 -267.857 210 210 210 255
225 183.951 -261.463 210 210 210 255
225 183.951 -255.07 210 210 210 255
225 183.951 -248.68 210 210 210 255
225 183.951 -242.292 210 210 210 255
225 183.951 -235.905 210 210 210 255
225 183.951 -229.52 210 210 210 255
225 183.951 -223.137 210 210 210 255
225 183.951 -216.755 210 210 210 255
225 183.951 -210.374 210 210 210 255
225 183.951 -203.995 210 210 210 255
225 183.951 -197.617 210 210 210 255
225 183.951 -191.24 210 210 210 255
225 183.951 -184.864 210 210 210 255
225 183.951 -178.489 210 210 210 255
225 183.951 -172.115 210 210 210 255
225 183.951 -165.741 210 210 210 255
225 183.951 -159.368 210 210 210 255
225 183.951 -152.995 210 210 210 255
225 183.951 -146.623 210 210 210 255
225 183.951 -140.251 210 210 210 255
225 183.951 -133.88 210 210 210 255
225 183.951 -127.508 210 210 210 255
225 183.951 -121.137 210 210 210 255
225 183.951 -114.766 210 210 210 255
225 183.951 -108.394 210 210 210 255
225 183.951 -102.023 210 210 210 255
225 183.951 -95.651 210 210 210 255
225 183.951 -89.2789 210 210 210 255
225 183.951 -82.9064 210 210 210 255
225 183.951 -76.5336 210 210 210 255
225 183.951 -70.1601 210 210 210 255
225 183.951 -63.7861 210 210 210 255
225 183.951 -57.4114 210 210 210 255
225 183.951 -51.036 210 210 210 255
225 183.951 -44.6599 210 210 210 255
225 183.951 -38.2828 210 210 210 255
225 183.951 -31.905 210 210 210 255
225 183.951 -25.5261 210 210 210 255
225 183.951 -19.1462 210 210 210 255
225 183.951 -12.7653 210 210 210 255
225 183.951 -6.38324 210 210 210 255
225 183.951 0 210 210 210 255
225 188.509 -639.801 210 210 210 255
225 188.509 -633.067 210 210 210 255
225 188.509 -626.344 210 210 210 255
225 188.509 -619.631 210 210 210 255
225 188.509 -612.928 210 210 210 255
225 188.509 -606.235 210 210 210 255
225 188.509 -599.552 210 210 210 255
225 188.509 -592.878 210 210 210 255
225 188.509 -586.214 210 210 210 255
225 188.509 -579.56 210 210 210 255
225 188.509 -572.914 210 210 210 255
225 188.509 -566.278 210 210 210 255
225 188.509 -559.65 210 210 210 255
225 188.509 -553.03 210 210 210 255
225 188.509 -546.419 210 210 210 255
225 188.509 -539.817 210 210 210 255
225 188.509 -533.222 210 210 210 255
225 188.509 -526.635 210 210 210 255
225 188.509 -520.056 210 210 210 255
225 188.509 -513.484 210 210 210 255
225 188.509 -506.92 210 210 210 255
225 188.509 -500.363 210 210 210 255
225 188.509 -493.813 210 210 210 255
225 188.509 -487.27 210 210 210 255
225 188.509 -480.734 210 210 210 255
225 188.509 -474.204 210 210 210 255
225 188.509 -467.68 210 210 210 255
225 188.509 -461.163 210 210 210 255
225 188.509 -454.652 210 210 210 255
225 188.509 -448.147 210 210 210 255
225 188.509 -441.648 210 210 210 255
225 188.509 -435.154 210 210 210 255
225 188.509 -428.666 210 210 210 255
225 188.509 -422.183 210 210 210 255
225 188.509 -415.705 210 210 210 255
225 188.509 -409.233 210 210 210 255
225 188.509 -402.765 210 210 210 255
225 188.509 -396.302 210 210 210 255
225 188.509 -389.844 210 210 210 255
225 188.509 -383.39 210 210 210 255
225 188.509 -376.941 210 210 210 255
225 188.509 -370.495 210 210 210 255
225 188.509 -364.054 210 210 210 255
225 188.509 -357.617 210 210 210 255
225 188.509 -351.184 210 210 210 255
225 188.509 -344.754 210 210 210 255
225 188.509 -338.328 210 210 210 255
225 188.509 -331.905 210 210 210 255
225 188.509 -325.486 210 210 210 255
225 188.509 -319.07 210 210 210 255
225 188.509 -312.656 210 210 210 255
225 188.509 -306.246 210 210 210 255
225 188.509 -299.839 210 210 210 255
225 188.509 -293.434 210 210 210 255
225 188.509 -287.032 210 210 210 255
225 188.509 -280.632 210 210 210 255
225 188.509 -274.235 210 210 210 255
225 188.509 -267.84 210 210 210 255
225 188.509 -261.447 210 210 210 255
225 188.509 -255.056 210 210 210 255
225 188.509 -248.667 210 210 210 255
225 188.509 -242.28 210 210 210 255
225 188.509 -235.895 210 210 210 255
225 188.509 -229.511 210 210 210 255
225 188.509 -223.129 210 210 210 255
225 188.509 -216.748 210 210 210 255
225 188.509 -210.368 210 210 210 255
225 188.509 -203.99 210 210 210 255
225 188.509 -197.612 210 210 210 255
225 188.509 -191.236 210 210 210 255
225 188.509 -184.86 210 210 210 255
225 188.509 -178.486 210 210 210 255
225 188.509 -172.112 210 210 210 255
225 188.509 -165.738 210 210 210 255
225 188.509 -159.366 210 210 210 255
225 188.509 -152.993 210 210 210 255
225 188.509 -146.622 210 210 210 255
225 188.509 -140.25 210 210 210 255
225 188.509 -133.879 210 210 210 255
225 188.509 -127.508 210 210 210 255
225 188.509 -121.136 210 210 210 255
225 188.509 -114.765 210 210 210 255
225 188.509 -108.394 210 210 210 255
225 188.509 -102.022 210 210 210 255
225 188.509 -95.6507 210 210 210 255
225 188.509 -89.2787 210 210 210 255
225 188.509 -82.9062 210 210 210 255
225 188.509 -76.5334 210 210 210 255
225 188.509 -70.16 210 210 210 255
225 188.509 -63.786 210 210 210 255
225 188.509 -57.4114 210 210 210 255
225 188.509 -51.036 210 210 210 255
225 188.509 -44.6599 210 210 210 255
225 188.509 -38.2828 210 210 210 255
225 188.509 -31.905 210 210 210 255
225 188.509 -25.5261 210 210 210 255
225 188.509 -19.1462 210 210 210 255
225 188.509 -12.7653 210 210 210 255
225 188.509 -6.38324 210 210 210 255
225 188.509 0 210 210 210 255
225 193.067 -639.354 210 210 210 255
225 193.067 -632.638 210 210 210 255
225 193.067 -625.932 210 210 210 255
225 193.067 -619.235 210 210 210 255
225 193.067 -612.549 210 210 210 255
225 193.067 -605.871 210 210 210 255
225 193.067 -599.204 210 210 210 255
225 193.067 -592.545 210 210 210 255
225 193.067 -585.895 210 210 210 255
225 193.067 -579.254 210 210 210 255
225 193.067 -572.622 210 210 210 255
225 193.067 -565.998 210 210 210 255
225 193.067 -559.383 210 210 210 255
225 193.067 -552.776 210 210 210 255
225 193.067 -546.176 210 210 210 255
225 193.067 -539.585 210 210 210 255
225 193.067 -533.001 210 210 210 255
225 193.067 -526.424 210 210 210 255
225 193.067 -519.855 210 210 210 255
225 193.067 -513.294 210 210 210 255
225 193.067 -506.739 210 210 210 255
225 193.067 -500.191 210 210 210 255
225 193.067 -493.649 210 210 210 255
225 193.067 -487.115 210 210 210 255
225 193.067 -480.586 210 210 210 255
225 193.067 -474.064 210 210 210 255
225 193.067 -467.548 210 210 210 255
225 193.067 -461.038 210 210 210 255
225 193.067 -454.534 210 210 210 255
225 193.067 -448.035 210 210 210 255
225 193.067 -441.542 210 210 210 255
225 193.067 -435.055 210 210 210 255
225 193.067 -428.572 210 210 210 255
225 193.067 -422.095 210 210 210 255
225 193.067 -415.622 210 210 210 255
225 193.067 -409.155 210 210 210 255
225 193.067 -402.692 210 210 210 255
225 193.067 -396.233 210 210 210 255
225 193.067 -389.779 210 210 210 255
225 193.067 -383.33 210 210 210 255
225 193.067 -376.884 210 210 210 255
225 193.067 -370.443 210 210 210 255
225 193.067 -364.005 210 210 210 255
225 193.067 -357.571 210 210 210 255
225 193.067 -351.141 210 210 210 255
225 193.067 -344.714 210 210 210 255
225 193.067 -338.291 210 210 210 255
225 193.067 -331.871 210 210 210 255
225 193.067 -325.454 210 210 210 255
225 193.067 -319.04 210 210 210 255
225 193.067 -312.63 210 210 210 255
225 193.067 -306.221 210 210 210 255
225 193.067 -299.816 210 210 210 255
225 193.067 -293.413 210 210 210 255
225 193.067 -287.013 210 210 210 255
225 193.067 -280.615 210 210 210 255
225 193.067 -274.219 210 210 210 255
225 193.067 -267.826 210 210 210 255
225 193.067 -261.434 210 210 210 255
225 193.067 -255.044 210 210 210 255
225 193.067 -248.657 210 210 210 255
225 193.067 -242.271 210 210 210 255
225 193.067 -235.886 210 210 210 255
225 193.067 -229.503 210 210 210 255
225 193.067 -223.122 210 210 210 255
225 193.067 -216.741 210 210 210 255
225 193.067 -210.362 210 210 210 255
225 193.067 -203.985 210 210 210 255
225 193.067 -197.608 210 210 210 255
225 193.067 -191.232 210 210 210 255
225 193.067 -184.857 210 210 210 255
225 193.067 -178.483 210 210 210 255
225 193.067 -172.109 210 210 210 255
225 193.067 -165.736 210 210 210 255
225 193.067 -159.364 210 210 210 255
225 193.067 -152.992 210 210 210 255
225 193.067 -146.62 210 210 210 255
225 193.067 -140.249 210 210 210 255
225 193.067 -133.878 210 210 210 255
225 193.067 -127.507 210 210 210 255
225 193.067 -121.136 210 210 210 255
225 193.067 -114.765 210 210 210 255
225 193.067 -108.393 210 210 210 255
225 193.067 -102.022 210 210 210 255
225 193.067 -95.6505 210 210 210 255
225 193.067 -89.2786 210 210 210 255
225 193.067 -82.9062 210 210 210 255
225 193.067 -76.5333 210 210 210 255
225 193.067 -70.16 210 210 210 255
225 193.067 -63.786 210 210 210 255
225 193.067 -57.4113 210 210 210 255
225 193.067 -51.0359 210 210 210 255
225 193.067 -44.6599 210 210 210 255
225 193.067 -38.2828 210 210 210 255
225 193.067 -31.905 210 210 210 255
225 193.067 -25.5261 210 210 210 255
225 193.067 -19.1462 210 210 210 255
225 193.067 -12.7653 210 210 210 255
225 193.067 -6.38324 210 210 210 255
225 193.067 0 210 210 210 255
225 197.626 -638.992 210 210 210 255
225 197.626 -632.29 210 210 210 255
225 197.626 -625.598 210 210 210 255
225 197.626 -618.915 210 210 210 255
225 197.626 -612.242 210 210 210 255
225 197.626 -605.577 210 210 210 255
225 197.626 -598.922 210 210 210 255
225 197.626 -592.275 210 210 210 255
225 197.626 -585.637 210 210 210 255
225 197.626 -579.007 210 210 210 255
225 197.626 -572.386 210 210 210 255
225 197.626 -565.772 210 210 210 255
225 197.626 -559.167 210 210 210 255
225 197.626 -552.569 210 210 210 255
225 197.626 -545.98 210 210 210 255
225 197.626 -539.397 210 210 210 255
225 197.626 -532.822 210 210 210 255
225 197.626 -526.254 210 210 210 255
225 197.626 -519.693 210 210 210 255
225 197.626 -513.139 210 210 210 255
225 197.626 -506.592 210 210 210 255
225 197.626 -500.051 210 210 210 255
225 197.626 -493.517 210 210 210 255
225 197.626 -486.989 210 210 210 255
225 197.626 -480.467 210 210 210 255
225 197.626 -473.951 210 210 210 255
225 197.626 -467.441 210 210 210 255
225 197.626 -460.937 210 210 210 255
225 197.626 -454.438 210 210 210 255
225 197.626 -447.945 210 210 210 255
225 197.626 -441.457 210 210 210 255
225 197.626 -434.974 210 210 210 255
225 197.626 -428.496 210 210 210 255
225 197.626 -422.023 210 210 210 255
225 197.626 -415.555 210 210 210 255
225 197.626 -409.091 210 210 210 255
225 197.626 -402.632 210 210 210 255
225 197.626 -396.178 210 210 210 255
225 197.626 -389.727 210 210 210 255
225 197.626 -383.281 210 210 210 255
225 197.626 -376.839 210 210 210 255
225 197.626 -370.4 210 210 210 255
225 197.626 -363.965 210 210 210 255
225 197.626 -357.534 210 210 210 255
225 197.626 -351.107 210 210 210 255
225 197.626 -344.682 210 210 210 255
225 197.626 -338.261 210 210 210 255
225 197.626 -331.844 210 210 210 255
225 197.626 -325.429 210 210 210 255
225 197.626 -319.017 210 210 210 255
225 197.626 -312.608 210 210 210 255
225 197.626 -306.201 210 210 210 255
225 197.626 -299.798 210 210 210 255
225 197.626 -293.396 210 210 210 255
225 197.626 -286.997 210 210 210 255
225 197.626 -280.601 210 210 210 255
225 197.626 -274.206 210 210 210 255
225 197.626 -267.814 210 210 210 255
225 197.626 -261.423 210 210 210 255
225 197.626 -255.035 210 210 210 255
225 197.626 -248.648 210 210 210 255
225 197.626 -242.263 210 210 210 255
225 197.626 -235.879 210 210 210 255
225 197.626 -229.497 210 210 210 255
225 197.626 -223.116 210 210 210 255
225 197.626 -216.736 210 210 210 255
225 197.626 -210.358 210 210 210 255
225 197.626 -203.981 210 210 210 255
225 197.626 -197.604 210 210 210 255
225 197.626 -191.229 210 210 210 255
225 197.626 -184.854 210 210 210 255
225 197.626 -178.48 210 210 210 255
225 197.626 -172.107 210 210 210 255
225 197.626 -165.735 210 210 210 255
225 197.626 -159.362 210 210 210 255
225 197.626 -152.991 210 210 210 255
225 197.626 -146.619 210 210 210 255
225 197.626 -140.248 210 210 210 255
225 197.626 -133.877 210 210 210 255
225 197.626 -127.506 210 210 210 255
225 197.626 -121.135 210 210 210 255
225 197.626 -114.764 210 210 210 255
225 197.626 -108.393 210 210 210 255
225 197.626 -102.022 210 210 210 255
225 197.626 -95.6503 210 210 210 255
225 197.626 -89.2784 210 210 210 255
225 197.626 -82.906 210 210 210 255
225 197.626 -76.5332 210 210 210 255
225 197.626 -70.1599 210 210 210 255
225 197.626 -63.7859 210 210 210 255
225 197.626 -57.4113 210 210 210 255
225 197.626 -51.0359 210 210 210 255
225 197.626 -44.6598 210 210 210 255
225 197.626 -38.2828 210 210 210 255
225 197.626 -31.905 210 210 210 255
225 197.626 -25.5261 210 210 210 255
225 197.626 -19.1462 210 210 210 255
225 197.626 -12.7653 210 210 210 255
225 197.626 -6.38324 210 210 210 255
225 197.626 0 210 210 210 255
225 202.186 -638.722 210 210 210 255
225 202.186 -632.031 210 210 210 255
225 202.186 -625.349 210 210 210 255
225 202.186 -618.677 210 210 210 255
225 202.186 -612.013 210 210 210 255
225 202.186 -605.358 210 210 210 255
225 202.186 -598.711 210 210 210 255
225 202.186 -592.074 210 210 210 255
225 202.186 -585.444 210 210 210 255
225 202.186 -578.823 210 210 210 255
225 202.186 -572.209 210 210 210 255
225 202.186 -565.604 210 210 210 255
225 202.186 -559.006 210 210 210 255
225 202.186 -552.416 210 210 210 255
225 202.186 -545.833 210 210 210 255
225 202.186 -539.257 210 210 210 255
225 202.186 -532.689 210 210 210 255
225 202.186 -526.127 210 210 210 255
225 202.186 -519.572 210 210 210 255
225 202.186 -513.024 210 210 210 255
225 202.186 -506.482 210 210 210 255
225 202.186 -499.947 210 210 210 255
225 202.186 -493.418 210 210 210 255
225 202.186 -486.895 210 210 210 255
225 202.186 -480.378 210 210 210 255
225 202.186 -473.867 210 210 210 255
225 202.186 -467.361 210 210 210 255
225 202.186 -460.861 210 210 210 255
225 202.186 -454.367 210 210 210 255
225 202.186 -447.877 210 210 210 255
225 202.186 -441.393 210 210 210 255
225 202.186 -434.914 210 210 210 255
225 202.186 -428.439 210 210 210 255
225 202.186 -421.97 210 210 210 255
225 202.186 -415.505 210 210 210 255
225 202.186 -409.044 210 210 210 255
225 202.186 -402.588 210 210 210 255
225 202.186 -396.136 210 210 210 255
225 202.186 -389.688 210 210 210 255
225 202.186 -383.244 210 210 210 255
225 202.186 -376.804 210 210 210 255
225 202.186 -370.368 210 210 210 255
225 202.186 -363.936 210 210 210 255
225 202.186 -357.507 210 210 210 255
225 202.186 -351.081 210 210 210 255
225 202.186 -344.658 210 210 210 255
225 202.186 -338.239 210 210 210 255
225 202.186 -331.823 210 210 210 255
225 202.186 -325.41 210 210 210 255
225 202.186 -318.999 210 210 210 255
225 202.186 -312.592 210 210 210 255
225 202.186 -306.187 210 210 210 255
225 202.186 -299.784 210 210 210 255
225 202.186 -293.384 210 210 210 255
225 202.186 -286.986 210 210 210 255
225 202.186 -280.59 210 210 210 255
225 202.186 -274.197 210 210 210 255
225 202.186 -267.805 210 210 210 255
225 202.186 -261.415 210 210 210 255
225 202.186 -255.028 210 210 210 255
225 202.186 -248.641 210 210 210 255
225 202.186 -242.257 210 210 210 255
225 202.186 -235.874 210 210 210 255
225 202.186 -229.492 210 210 210 255
225 202.186 -223.112 210 210 210 255
225 202.186 -216.733 210 210 210 255
225 202.186 -210.355 210 210 210 255
225 202.186 -203.978 210 210 210 255
225 202.186 -197.602 210 210 210 255
225 202.186 -191.227 210 210 210 255
225 202.186 -184.852 210 210 210 255
225 202.186 -178.479 210 210 210 255
225 202.186 -172.106 210 210 210 255
225 202.186 -165.733 210 210 210 255
225 202.186 -159.361 210 210 210 255
225 202.186 -152.99 210 210 210 255
225 202.186 -146.619 210 210 210 255
225 202.186 -140.247 210 210 210 255
225 202.186 -133.877 210 210 210 255
225 202.186 -127.506 210 210 210 255
225 202.186 -121.135 210 210 210 255
225 202.186 -114.764 210 210 210 255
225 202.186 -108.393 210 210 210 255
225 202.186 -102.022 210 210 210 255
225 202.186 -95.6501 210 210 210 255
225 202.186 -89.2783 210 210 210 255
225 202.186 -82.9059 210 210 210 255
225 202.186 -76.5332 210 210 210 255
225 202.186 -70.1599 210 210 210 255
225 202.186 -63.7859 210 210 210 255
225 202.186 -57.4113 210 210 210 255
225 202.186 -51.0359 210 210 210 255
225 202.186 -44.6599 210 210 210 255
225 202.186 -38.2828 210 210 210 255
225 202.186 -31.905 210 210 210 255
225 202.186 -25.5261 210 210 210 255
225 202.186 -19.1462 210 210 210 255
225 202.186 -12.7653 210 210 210 255
225 202.186 -6.38324 210 210 210 255
225 202.186 0 210 210 210 255
225 206.747 -638.551 210 210 210 255
225 206.747 -631.867 210 210 210 255
225 206.747 -625.192 210 210 210 255
225 206.747 -618.525 210 210 210 255
225 206.747 -611.868 210 210 210 255
225 206.747 -605.219 210 210 210 255
225 206.747 -598.578 210 210 210 255
225 206.747 -591.946 210 210 210 255
225 206.747 -585.322 210 210 210 255
225 206.747 -578.706 210 210 210 255
225 206.747 -572.098 210 210 210 255
225 206.747 -565.497 210 210 210 255
225 206.747 -558.904 210 210 210 255
225 206.747 -552.318 210 210 210 255
225 206.747 -545.74 210 210 210 255
225 206.747 -539.169 210 210 210 255
225 206.747 -532.604 210 210 210 255
225 206.747 -526.047 210 210 210 255
225 206.747 -519.496 210 210 210 255
225 206.747 -512.951 210 210 210 255
225 206.747 -506.413 210 210 210 255
225 206.747 -499.881 210 210 210 255
225 206.747 -493.356 210 210 210 255
225 206.747 -486.836 210 210 210 255
225 206.747 -480.322 210 210 210 255
225 206.747 -473.814 210 210 210 255
225 206.747 -467.311 210 210 210 255
225 206.747 -460.813 210 210 210 255
225 206.747 -454.321 210 210 210 255
225 206.747 -447.835 210 210 210 255
225 206.747 -441.353 210 210 210 255
225 206.747 -434.876 210 210 210 255
225 206.747 -428.404 210 210 210 255
225 206.747 -421.936 210 210 210 255
225 206.747 -415.473 210 210 210 255
225 206.747 -409.014 210 210 210 255
225 206.747 -402.56 210 210 210 255
225 206.747 -396.11 210 210 210 255
225 206.747 -389.664 210 210 210 255
225 206.747 -383.221 210 210 210 255
225 206.747 -376.783 210 210 210 255
225 206.747 -370.348 210 210 210 255
225 206.747 -363.917 210 210 210 255
225 206.747 -357.489 210 210 210 255
225 206.747 -351.065 210 210 210 255
225 206.747 -344.643 210 210 210 255
225 206.747 -338.225 210 210 210 255
225 206.747 -331.81 210 210 210 255
225 206.747 -325.398 210 210 210 255
225 206.747 -318.988 210 210 210 255
225 206.747 -312.581 210 210 210 255
225 206.747 -306.177 210 210 210 255
225 206.747 -299.775 210 210 210 255
225 206.747 -293.376 210 210 210 255
225 206.747 -286.979 210 210 210 255
225 206.747 -280.584 210 210 210 255
225 206.747 -274.191 210 210 210 255
225 206.747 -267.8 210 210 210 255
225 206.747 -261.41 210 210 210 255
225 206.747 -255.023 210 210 210 255
225 206.747 -248.637 210 210 210 255
225 206.747 -242.253 210 210 210 255
225 206.747 -235.87 210 210 210 255
225 206.747 -229.489 210 210 210 255
225 206.747 -223.109 210 210 210 255
225 206.747 -216.73 210 210 210 255
225 206.747 -210.352 210 210 210 255
225 206.747 -203.976 210 210 210 255
225 206.747 -197.6 210 210 210 255
225 206.747 -191.225 210 210 210 255
225 206.747 -184.851 210 210 210 255
225 206.747 -178.478 210 210 210 255
225 206.747 -172.105 210 210 210 255
225 206.747 -165.733 210 210 210 255
225 206.747 -159.361 210 210 210 255
225 206.747 -152.989 210 210 210 255
225 206.747 -146.618 210 210 210 255
225 206.747 -140.247 210 210 210 255
225 206.747 -133.876 210 210 210 255
225 206.747 -127.505 210 210 210 255
225 206.747 -121.135 210 210 210 255
225 206.747 -114.764 210 210 210 255
225 206.747 -108.393 210 210 210 255
225 206.747 -102.022 210 210 210 255
225 206.747 -95.6501 210 210 210 255
225 206.747 -89.2782 210 210 210 255
225 206.747 -82.9059 210 210 210 255
225 206.747 -76.5331 210 210 210 255
225 206.747 -70.1598 210 210 210 255
225 206.747 -63.7859 210 210 210 255
225 206.747 -57.4113 210 210 210 255
225 206.747 -51.0359 210 210 210 255
225 206.747 -44.6598 210 210 210 255
225 206.747 -38.2828 210 210 210 255
225 206.747 -31.905 210 210 210 255
225 206.747 -25.5261 210 210 210 255
225 206.747 -19.1462 210 210 210 255
225 206.747 -12.7653 210 210 210 255
225 206.747 -6.38324 210 210 210 255
225 206.747 0 210 210 210 255
225 211.308 -638.486 210 210 210 255
225 211.308 -631.804 210 210 210 255
225 211.308 -625.132 210 210 210 255
225 211.308 -618.468 210 210 210 255
225 211.308 -611.812 210 210 210 255
225 211.308 -605.166 210 210 210 255
225 211.308 -598.528 210 210 210 255
225 211.308 -591.897 210 210 210 255
225 211.308 -585.275 210 210 210 255
225 211.308 -578.661 210 210 210 255
225 211.308 -572.055 210 210 210 255
225 211.308 -565.456 210 210 210 255
225 211.308 -558.865 210 210 210 255
225 211.308 -552.281 210 210 210 255
225 211.308 -545.704 210 210 210 255
225 211.308 -539.135 210 210 210 255
225 211.308 -532.572 210 210 210 255
225 211.308 -526.016 210 210 210 255
225 211.308 -519.466 210 210 210 255
225 211.308 -512.923 210 210 210 255
225 211.308 -506.387 210 210 210 255
225 211.308 -499.856 210 210 210 255
225 211.308 -493.332 210 210 210 255
225 211.308 -486.813 210 210 210 255
225 211.308 -480.3 210 210 210 255
225 211.308 -473.793 210 210 210 255
225 211.308 -467.292 210 210 210 255
225 211.308 -460.795 210 210 210 255
225 211.308 -454.304 210 210 210 255
225 211.308 -447.818 210 210 210 255
225 211.308 -441.337 210 210 210 255
225 211.308 -434.861 210 210 210 255
225 211.308 -428.39 210 210 210 255
225 211.308 -421.923 210 210 210 255
225 211.308 -415.461 210 210 210 255
225 211.308 -409.003 210 210 210 255
225 211.308 -402.549 210 210 210 255
225 211.308 -396.1 210 210 210 255
225 211.308 -389.654 210 210 210 255
225 211.308 -383.213 210 210 210 255
225 211.308 -376.775 210 210 210 255
225 211.308 -370.34 210 210 210 255
225 211.308 -363.91 210 210 210 255
225 211.308 -357.482 210 210 210 255
225 211.308 -351.058 210 210 210 255
225 211.308 -344.638 210 210 210 255
225 211.308 -338.22 210 210 210 255
225 211.308 -331.805 210 210 210 255
225 211.308 -325.393 210 210 210 255
225 211.308 -318.984 210 210 210 255
225 211.308 -312.577 210 210 210 255
225 211.308 -306.174 210 210 210 255
225 211.308 -299.772 210 210 210 255
225 211.308 -293.373 210 210 210 255
225 211.308 -286.976 210 210 210 255
225 211.308 -280.581 210 210 210 255
225 211.308 -274.188 210 210 210 255
225 211.308 -267.797 210 210 210 255
225 211.308 -261.409 210 210 210 255
225 211.308 -255.021 210 210 210 255
225 211.308 -248.636 210 210 210 255
225 211.308 -242.252 210 210 210 255
225 211.308 -235.869 210 210 210 255
225 211.308 -229.488 210 210 210 255
225 211.308 -223.108 210 210 210 255
225 211.308 -216.729 210 210 210 255
225 211.308 -210.352 210 210 210 255
225 211.308 -203.975 210 210 210 255
225 211.308 -197.599 210 210 210 255
225 211.308 -191.225 210 210 210 255
225 211.308 -184.851 210 210 210 255
225 211.308 -178.477 210 210 210 255
225 211.308 -172.104 210 210 210 255
225 211.308 -165.732 210 210 210 255
225 211.308 -159.36 210 210 210 255
225 211.308 -152.989 210 210 210 255
225 211.308 -146.618 210 210 210 255
225 211.308 -140.247 210 210 210 255
225 211.308 -133.876 210 210 210 255
225 211.308 -127.505 210 210 210 255
225 211.308 -121.135 210 210 210 255
225 211.308 -114.764 210 210 210 255
225 211.308 -108.393 210 210 210 255
225 211.308 -102.022 210 210 210 255
225 211.308 -95.65 210 210 210 255
225 211.308 -89.2781 210 210 210 255
225 211.308 -82.9059 210 210 210 255
225 211.308 -76.5331 210 210 210 255
225 211.308 -70.1598 210 210 210 255
225 211.308 -63.7859 210 210 210 255
225 211.308 -57.4113 210 210 210 255
225 211.308 -51.0359 210 210 210 255
225 211.308 -44.6598 210 210 210 255
225 211.308 -38.2828 210 210 210 255
225 211.308 -31.905 210 210 210 255
225 211.308 -25.5261 210 210 210 255
225 211.308 -19.1462 210 210 210 255
225 211.308 -12.7653 210 210 210 255
225 211.308 -6.38324 210 210 210 255
225 211.308 0 210 210 210 255
225 215.871 -638.534 210 210 210 255
225 215.871 -631.851 210 210 210 255
225 215.871 -625.176 210 210 210 255
225 215.871 -618.51 210 210 210 255
225 215.871 -611.853 210 210 210 255
225 215.871 -605.205 210 210 210 255
225 215.871 -598.565 210 210 210 255
225 215.871 -591.933 210 210 210 255
225 215.871 -585.31 210 210 210 255
225 215.871 -578.694 210 210 210 255
225 215.871 -572.086 210 210 210 255
225 215.871 -565.486 210 210 210 255
225 215.871 -558.894 210 210 210 255
225 215.871 -552.309 210 210 210 255
225 215.871 -545.731 210 210 210 255
225 215.871 -539.16 210 210 210 255
225 215.871 -532.596 210 210 210 255
225 215.871 -526.039 210 210 210 255
225 215.871 -519.488 210 210 210 255
225 215.871 -512.944 210 210 210 255
225 215.871 -506.406 210 210 210 255
225 215.871 -499.875 210 210 210 255
225 215.871 -493.349 210 210 210 255
225 215.871 -486.83 210 210 210 255
225 215.871 -480.316 210 210 210 255
225 215.871 -473.808 210 210 210 255
225 215.871 -467.306 210 210 210 255
225 215.871 -460.809 210 210 210 255
225 215.871 -454.317 210 210 210 255
225 215.871 -447.83 210 210 210 255
225 215.871 -441.349 210 210 210 255
225 215.871 -434.872 210 210 210 255
225 215.871 -428.4 210 210 210 255
225 215.871 -421.933 210 210 210 255
225 215.871 -415.47 210 210 210 255
225 215.871 -409.011 210 210 210 255
225 215.871 -402.557 210 210 210 255
225 215.871 -396.107 210 210 210 255
225 215.871 -389.661 210 210 210 255
225 215.871 -383.219 210 210 210 255
225 215.871 -376.781 210 210 210 255
225 215.871 -370.346 210 210 210 255
225 215.871 -363.915 210 210 210 255
225 215.871 -357.487 210 210 210 255
225 215.871 -351.063 210 210 210 255
225 215.871 -344.642 210 210 210 255
225 215.871 -338.224 210 210 210 255
225 215.871 -331.809 210 210 210 255
225 215.871 -325.396 210 210 210 255
225 215.871 -318.987 210 210 210 255
225 215.871 -312.58 210 210 210 255
225 215.871 -306.176 210 210 210 255
225 215.871 -299.774 210 210 210 255
225 215.871 -293.375 210 210 210 255
225 215.871 -286.978 210 210 210 255
225 215.871 -280.583 210 210 210 255
225 215.871 -274.19 210 210 210 255
225 215.871 -267.799 210 210 210 255
225 215.871 -261.41 210 210 210 255
225 215.871 -255.023 210 210 210 255
225 215.871 -248.637 210 210 210 255
225 215.871 -242.253 210 210 210 255
225 215.871 -235.87 210 210 210 255
225 215.871 -229.489 210 210 210 255
225 215.871 -223.109 210 210 210 255
225 215.871 -216.73 210 210 210 255
225 215.871 -210.352 210 210 210 255
225 215.871 -203.976 210 210 210 255
225 215.871 -197.6 210 210 210 255
225 215.871 -191.225 210 210 210 255
225 215.871 -184.851 210 210 210 255
225 215.871 -178.478 210 210 210 255
225 215.871 -172.105 210 210 210 255
225 215.871 -165.732 210 210 210 255
225 215.871 -159.361 210 210 210 255
225 215.871 -152.989 210 210 210 255
225 215.871 -146.618 210 210 210 255
225 215.871 -140.247 210 210 210 255
225 215.871 -133.876 210 210 210 255
225 215.871 -127.505 210 210 210 255
225 215.871 -121.135 210 210 210 255
225 215.871 -114.764 210 210 210 255
225 215.871 -108.393 210 210 210 255
225 215.871 -102.022 210 210 210 255
