ply
format ascii 1.0
element vertex 1156
property float x
property float y
property float z
property uchar red
property uchar green
property uchar blue
property uchar alpha
end_header
194.944 -188.227 -601.196 210 210 210 255
194.944 -188.227 -598.305 210 210 210 255
194.944 -188.227 -595.409 210 210 210 255
194.944 -188.227 -592.51 210 210 210 255
194.944 -188.227 -589.606 210 210 210 255
194.944 -188.227 -586.698 210 210 210 255
194.944 -188.227 -583.785 210 210 210 255
194.944 -188.227 -580.869 210 210 210 255
194.944 -188.227 -577.948 210 210 210 255
194.944 -188.227 -575.024 210 210 210 255
194.944 -188.227 -572.095 210 210 210 255
194.944 -188.227 -569.163 210 210 210 255
194.944 -188.227 -566.226 210 210 210 255
194.944 -188.227 -563.286 210 210 210 255
194.944 -188.227 -560.342 210 210 210 255
194.944 -188.227 -557.394 210 210 210 255
194.944 -188.227 -554.442 210 210 210 255
194.944 -188.227 -551.487 210 210 210 255
194.944 -188.227 -548.528 210 210 210 255
194.944 -188.227 -545.565 210 210 210 255
194.944 -188.227 -542.599 210 210 210 255
194.944 -188.227 -539.629 210 210 210 255
194.944 -188.227 -536.656 210 210 210 255
194.944 -188.227 -533.68 210 210 210 255
194.944 -188.227 -530.7 210 210 210 255
194.944 -188.227 -527.717 210 210 210 255
194.944 -188.227 -524.73 210 210 210 255
194.944 -188.227 -521.74 210 210 210 255
194.944 -188.227 -518.747 210 210 210 255
194.944 -188.227 -515.751 210 210 210 255
194.944 -188.227 -512.752 210 210 210 255
194.944 -188.227 -509.749 210 210 210 255
194.944 -188.227 -506.744 210 210 210 255
194.944 -188.227 -503.735 210 210 210 255
194.944 -188.227 -500.724 210 210 210 255
194.944 -188.227 -497.709 210 210 210 255
194.944 -188.227 -494.692 210 210 210 255
194.944 -188.227 -491.672 210 210 210 255
194.944 -188.227 -488.649 210 210 210 255
194.944 -188.227 -485.623 210 210 210 255
194.944 -188.227 -482.595 210 210 210 255
194.944 -188.227 -479.563 210 210 210 255
194.944 -188.227 -476.529 210 210 210 255
194.944 -188.227 -473.493 210 210 210 255
194.944 -188.227 -470.454 210 210 210 255
194.944 -188.227 -467.412 210 210 210 255
194.944 -188.227 -464.368 210 210 210 255
194.944 -188.227 -461.321 210 210 210 255
194.944 -188.227 -458.272 210 210 210 255
194.944 -188.227 -455.22 210 210 210 255
194.944 -188.227 -452.167 210 210 210 255
194.944 -188.227 -449.11 210 210 210 255
194.944 -188.227 -446.052 210 210 210 255
194.944 -188.227 -442.991 210 210 210 255
194.944 -188.227 -439.928 210 210 210 255
194.944 -188.227 -436.862 210 210 210 255
194.944 -188.227 -433.795 210 210 210 255
194.944 -188.227 -430.725 210 210 210 255
194.944 -188.227 -427.653 210 210 210 255
194.944 -188.227 -424.579 210 210 210 255
194.944 -188.227 -421.503 210 210 210 255
194.944 -188.227 -418.426 210 210 210 255
194.944 -188.227 -415.346 210 210 210 255
194.944 -188.227 -412.264 210 210 210 255
194.944 -188.227 -409.18 210 210 210 255
194.944 -188.227 -406.094 210 210 210 255
194.944 -188.227 -403.007 210 210 210 255
194.944 -188.227 -399.917 210 210 210 255
194.944 -188.227 -396.826 210 210 210 255
194.944 -188.227 -393.733 210 210 210 255
194.944 -188.227 -390.638 210 210 210 255
194.944 -188.227 -387.542 210 210 210 255
194.944 -188.227 -384.444 210 210 210 255
194.944 -188.227 -381.344 210 210 210 255
194.944 -188.227 -378.243 210 210 210 255
194.944 -188.227 -375.14 210 210 210 255
194.944 -188.227 -372.035 210 210 210 255
194.944 -188.227 -368.929 210 210 210 255
194.944 -188.227 -365.821 210 210 210 255
194.944 -188.227 -362.712 210 210 210 255
194.944 -188.227 -359.602 210 210 210 255
194.944 -188.227 -356.49 210 210 210 255
194.944 -188.227 -353.376 210 210 210 255
194.944 -188.227 -350.261 210 210 210 255
194.944 -188.227 -347.145 210 210 210 255
194.944 -188.227 -344.028 210 210 210 255
194.944 -188.227 -340.909 210 210 210 255
194.944 -188.227 -337.789 210 210 210 255
194.944 -188.227 -334.667 210 210 210 255
194.944 -188.227 -331.545 210 210 210 255
194.944 -188.227 -328.421 210 210 210 255
194.944 -188.227 -325.296 210 210 210 255
194.944 -188.227 -322.17 210 210 210 255
194.944 -188.227 -319.042 210 210 210 255
194.944 -188.227 -315.914 210 210 210 255
194.944 -188.227 -312.784 210 210 210 255
194.944 -188.227 -309.653 210 210 210 255
194.944 -188.227 -306.522 210 210 210 255
194.944 -188.227 -303.389 210 210 210 255
194.944 -188.227 -300.255 210 210 210 255
194.944 -188.227 -297.12 210 210 210 255
194.944 -188.227 -293.984 210 210 210 255
194.944 -188.227 -290.848 210 210 210 255
194.944 -188.227 -287.71 210 210 210 255
194.944 -188.227 -284.572 210 210 210 255
194.944 -188.227 -281.432 210 210 210 255
194.944 -188.227 -278.292 210 210 210 255
194.944 -188.227 -275.15 210 210 210 255
194.944 -188.227 -272.008 210 210 210 255
194.944 -188.227 -268.866 210 210 210 255
194.944 -188.227 -265.722 210 210 210 255
194.944 -188.227 -262.577 210 210 210 255
194.944 -188.227 -259.432 210 210 210 255
194.944 -188.227 -256.286 210 210 210 255
194.944 -188.227 -253.139 210 210 210 255
194.944 -188.227 -249.992 210 210 210 255
194.944 -188.227 -246.844 210 210 210 255
194.944 -188.227 -243.695 210 210 210 255
194.944 -188.227 -240.546 210 210 210 255
194.944 -188.227 -237.395 210 210 210 255
194.944 -188.227 -234.245 210 210 210 255
194.944 -188.227 -231.093 210 210 210 255
194.944 -188.227 -227.941 210 210 210 255
194.944 -188.227 -224.789 210 210 210 255
194.944 -188.227 -221.635 210 210 210 255
194.944 -188.227 -218.482 210 210 210 255
194.944 -188.227 -215.327 210 210 210 255
194.944 -188.227 -212.172 210 210 210 255
194.944 -188.227 -209.017 210 210 210 255
194.944 -188.227 -205.861 210 210 210 255
194.944 -188.227 -202.705 210 210 210 255
194.944 -188.227 -199.548 210 210 210 255
194.944 -188.227 -196.391 210 210 210 255
194.944 -188.227 -193.233 210 210 210 255
194.944 -188.227 -190.074 210 210 210 255
194.944 -188.227 -186.916 210 210 210 255
194.944 -188.227 -183.757 210 210 210 255
194.944 -188.227 -180.597 210 210 210 255
194.944 -188.227 -177.437 210 210 210 255
194.944 -188.227 -174.277 210 210 210 255
194.944 -188.227 -171.116 210 210 210 255
194.944 -188.227 -167.954 210 210 210 255
194.944 -188.227 -164.793 210 210 210 255
194.944 -188.227 -161.631 210 210 210 255
194.944 -188.227 -158.469 210 210 210 255
194.944 -188.227 -155.306 210 210 210 255
194.944 -188.227 -152.143 210 210 210 255
194.944 -188.227 -148.98 210 210 210 255
194.944 -188.227 -145.816 210 210 210 255
194.944 -188.227 -142.652 210 210 210 255
194.944 -188.227 -139.488 210 210 210 255
194.944 -188.227 -136.323 210 210 210 255
194.944 -188.227 -133.158 210 210 210 255
194.944 -188.227 -129.993 210 210 210 255
194.944 -188.227 -126.828 210 210 210 255
194.944 -188.227 -123.662 210 210 210 255
194.944 -188.227 -120.496 210 210 210 255
194.944 -188.227 -117.329 210 210 210 255
194.944 -188.227 -114.163 210 210 210 255
194.944 -188.227 -110.996 210 210 210 255
194.944 -188.227 -107.829 210 210 210 255
194.944 -188.227 -104.662 210 210 210 255
194.944 -188.227 -101.494 210 210 210 255
194.944 -188.227 -98.3261 210 210 210 255
194.944 -188.227 -95.158 210 210 210 255
194.944 -188.227 -91.9896 210 210 210 255
194.944 -188.227 -88.8209 210 210 210 255
194.944 -188.227 -85.652 210 210 210 255
194.944 -188.227 -82.483 210 210 210 255
194.944 -188.227 -79.3135 210 210 210 255
194.944 -188.227 -76.144 210 210 210 255
194.944 -188.227 -72.9741 210 210 210 255
194.944 -188.227 -69.8042 210 210 210 255
194.944 -188.227 -66.6337 210 210 210 255
194.944 -188.227 -63.4633 210 210 210 255
194.944 -188.227 -60.2925 210 210 210 255
194.944 -188.227 -57.1215 210 210 210 255
194.944 -188.227 -53.9501 210 210 210 255
194.944 -188.227 -50.7787 210 210 210 255
194.944 -188.227 -47.6069 210 210 210 255
194.944 -188.227 -44.435 210 210 210 255
194.944 -188.227 -41.2627 210 210 210 255
194.944 -188.227 -38.0903 210 210 210 255
194.944 -188.227 -34.9174 210 210 210 255
194.944 -188.227 -31.7446 210 210 210 255
194.944 -188.227 -28.5713 210 210 210 255
194.944 -188.227 -25.3978 210 210 210 255
194.944 -188.227 -22.2241 210 210 210 255
194.944 -188.227 -19.0499 210 210 210 255
194.944 -188.227 -15.8757 210 210 210 255
194.944 -188.227 -12.7012 210 210 210 255
194.944 -188.227 -9.52631 210 210 210 255
194.944 -188.227 -6.35114 210 210 210 255
194.944 -188.227 -3.1756 210 210 210 255
194.944 -188.227 6.10352e-05 210 210 210 255
195.573 -185.988 -614.802 210 210 210 255
195.573 -185.988 -611.949 210 210 210 255
195.573 -185.988 -609.091 210 210 210 255
195.573 -185.988 -606.229 210 210 210 255
195.573 -185.988 -603.362 210 210 210 255
195.573 -185.988 -600.49 210 210 210 255
195.573 -185.988 -597.613 210 210 210 255
195.573 -185.988 -594.732 210 210 210 255
195.573 -185.988 -591.847 210 210 210 255
195.573 -185.988 -588.957 210 210 210 255
195.573 -185.988 -586.062 210 210 210 255
195.573 -185.988 -583.163 210 210 210 255
195.573 -185.988 -580.26 210 210 210 255
195.573 -185.988 -577.352 210 210 210 255
195.573 -185.988 -574.44 210 210 210 255
195.573 -185.988 -571.524 210 210 210 255
195.573 -185.988 -568.604 210 210 210 255
195.573 -185.988 -565.679 210 210 210 255
195.573 -185.988 -562.751 210 210 210 255
195.573 -185.988 -559.818 210 210 210 255
195.573 -185.988 -556.882 210 210 210 255
195.573 -185.988 -553.942 210 210 210 255
195.573 -185.988 -550.998 210 210 210 255
195.573 -185.988 -548.05 210 210 210 255
195.573 -185.988 -545.098 210 210 210 255
195.573 -185.988 -542.142 210 210 210 255
195.573 -185.988 -539.183 210 210 210 255
195.573 -185.988 -536.22 210 210 210 255
195.573 -185.988 -533.254 210 210 210 255
195.573 -185.988 -530.284 210 210 210 255
195.573 -185.988 -527.31 210 210 210 255
195.573 -185.988 -524.333 210 210 210 255
195.573 -185.988 -521.353 210 210 210 255
195.573 -185.988 -518.369 210 210 210 255
195.573 -185.988 -515.382 210 210 210 255
195.573 -185.988 -512.391 210 210 210 255
195.573 -185.988 -509.397 210 210 210 255
195.573 -185.988 -506.401 210 210 210 255
195.573 -185.988 -503.4 210 210 210 255
195.573 -185.988 -500.397 210 210 210 255
195.573 -185.988 -497.391 210 210 210 255
195.573 -185.988 -494.381 210 210 210 255
195.573 -185.988 -491.369 210 210 210 255
195.573 -185.988 -488.354 210 210 210 255
195.573 -185.988 -485.335 210 210 210 255
195.573 -185.988 -482.314 210 210 210 255
195.573 -185.988 -479.29 210 210 210 255
195.573 -185.988 -476.263 210 210 210 255
195.573 -185.988 -473.234 210 210 210 255
195.573 -185.988 -470.202 210 210 210 255
195.573 -185.988 -467.167 210 210 210 255
195.573 -185.988 -464.129 210 210 210 255
195.573 -185.988 -461.089 210 210 210 255
195.573 -185.988 -458.046 210 210 210 255
195.573 -185.988 -455 210 210 210 255
195.573 -185.988 -451.952 210 210 210 255
195.573 -185.988 -448.902 210 210 210 255
195.573 -185.988 -445.849 210 210 210 255
195.573 -185.988 -442.794 210 210 210 255
195.573 -185.988 -439.736 210 210 210 255
195.573 -185.988 -436.676 210 210 210 255
195.573 -185.988 -433.614 210 210 210 255
195.573 -185.988 -430.549 210 210 210 255
195.573 -185.988 -427.483 210 210 210 255
195.573 -185.988 -424.414 210 210 210 255
195.573 -185.988 -421.343 210 210 210 255
195.573 -185.988 -418.27 210 210 210 255
195.573 -185.988 -415.194 210 210 210 255
195.573 -185.988 -412.117 210 210 210 255
195.573 -185.988 -409.038 210 210 210 255
195.573 -185.988 -405.956 210 210 210 255
195.573 -185.988 -402.873 210 210 210 255
195.573 -185.988 -399.788 210 210 210 255
195.573 -185.988 -396.701 210 210 210 255
195.573 -185.988 -393.611 210 210 210 255
195.573 -185.988 -390.521 210 210 210 255
195.573 -185.988 -387.428 210 210 210 255
195.573 -185.988 -384.334 210 210 210 255
195.573 -185.988 -381.237 210 210 210 255
195.573 -185.988 -378.139 210 210 210 255
195.573 -185.988 -375.04 210 210 210 255
195.573 -185.988 -371.939 210 210 210 255
195.573 -185.988 -368.836 210 210 210 255
195.573 -185.988 -365.731 210 210 210 255
195.573 -185.988 -362.625 210 210 210 255
195.573 -185.988 -359.518 210 210 210 255
195.573 -185.988 -356.408 210 210 210 255
195.573 -185.988 -353.298 210 210 210 255
195.573 -185.988 -350.186 210 210 210 255
195.573 -185.988 -347.072 210 210 210 255
195.573 -185.988 -343.957 210 210 210 255
195.573 -185.988 -340.841 210 210 210 255
195.573 -185.988 -337.723 210 210 210 255
195.573 -185.988 -334.604 210 210 210 255
195.573 -185.988 -331.484 210 210 210 255
195.573 -185.988 -328.362 210 210 210 255
195.573 -185.988 -325.24 210 210 210 255
195.573 -185.988 -322.116 210 210 210 255
195.573 -185.988 -318.99 210 210 210 255
195.573 -185.988 -315.864 210 210 210 255
195.573 -185.988 -312.736 210 210 210 255
195.573 -185.988 -309.607 210 210 210 255
195.573 -185.988 -306.477 210 210 210 255
195.573 -185.988 -303.346 210 210 210 255
195.573 -185.988 -300.214 210 210 210 255
195.573 -185.988 -297.081 210 210 210 255
195.573 -185.988 -293.947 210 210 210 255
195.573 -185.988 -290.812 210 210 210 255
195.573 -185.988 -287.676 210 210 210 255
195.573 -185.988 -284.539 210 210 210 255
195.573 -185.988 -281.401 210 210 210 255
195.573 -185.988 -278.262 210 210 210 255
195.573 -185.988 -275.122 210 210 210 255
195.573 -185.988 -271.981 210 210 210 255
195.573 -185.988 -268.84 210 210 210 255
195.573 -185.988 -265.697 210 210 210 255
195.573 -185.988 -262.554 210 210 210 255
195.573 -185.988 -259.41 210 210 210 255
195.573 -185.988 -256.265 210 210 210 255
195.573 -185.988 -253.119 210 210 210 255
195.573 -185.988 -249.973 210 210 210 255
195.573 -185.988 -246.825 210 210 210 255
195.573 -185.988 -243.677 210 210 210 255
195.573 -185.988 -240.529 210 210 210 255
195.573 -185.988 -237.38 210 210 210 255
195.573 -185.988 -234.23 210 210 210 255
195.573 -185.988 -231.079 210 210 210 255
195.573 -185.988 -227.928 210 210 210 255
195.573 -185.988 -224.776 210 210 210 255
195.573 -185.988 -221.624 210 210 210 255
195.573 -185.988 -218.47 210 210 210 255
195.573 -185.988 -215.317 210 210 210 255
195.573 -185.988 -212.162 210 210 210 255
195.573 -185.988 -209.008 210 210 210 255
195.573 -185.988 -205.852 210 210 210 255
195.573 -185.988 -202.696 210 210 210 255
195.573 -185.988 -199.54 210 210 210 255
195.573 -185.988 -196.383 210 210 210 255
195.573 -185.988 -193.226 210 210 210 255
195.573 -185.988 -190.068 210 210 210 255
195.573 -185.988 -186.91 210 210 210 255
195.573 -185.988 -183.751 210 210 210 255
195.573 -185.988 -180.591 210 210 210 255
195.573 -185.988 -177.432 210 210 210 255
195.573 -185.988 -174.272 210 210 210 255
195.573 -185.988 -171.111 210 210 210 255
195.573 -185.988 -167.951 210 210 210 255
195.573 -185.988 -164.789 210 210 210 255
195.573 -185.988 -161.628 210 210 210 255
195.573 -185.988 -158.466 210 210 210 255
195.573 -185.988 -155.303 210 210 210 255
195.573 -185.988 -152.141 210 210 210 255
195.573 -185.988 -148.977 210 210 210 255
195.573 -185.988 -145.814 210 210 210 255
195.573 -185.988 -142.65 210 210 210 255
195.573 -185.988 -139.486 210 210 210 255
195.573 -185.988 -136.321 210 210 210 255
195.573 -185.988 -133.157 210 210 210 255
195.573 -185.988 -129.992 210 210 210 255
195.573 -185.988 -126.826 210 210 210 255
195.573 -185.988 -123.661 210 210 210 255
195.573 -185.988 -120.495 210 210 210 255
195.573 -185.988 -117.329 210 210 210 255
195.573 -185.988 -114.162 210 210 210 255
195.573 -185.988 -110.995 210 210 210 255
195.573 -185.988 -107.828 210 210 210 255
195.573 -185.988 -104.661 210 210 210 255
195.573 -185.988 -101.494 210 210 210 255
195.573 -185.988 -98.3256 210 210 210 255
195.573 -185.988 -95.1575 210 210 210 255
195.573 -185.988 -91.9892 210 210 210 255
195.573 -185.988 -88.8206 210 210 210 255
195.573 -185.988 -85.6517 210 210 210 255
195.573 -185.988 -82.4828 210 210 210 255
195.573 -185.988 -79.3134 210 210 210 255
195.573 -185.988 -76.1437 210 210 210 255
195.573 -185.988 -72.9739 210 210 210 255
195.573 -185.988 -69.804 210 210 210 255
195.573 -185.988 -66.6337 210 210 210 255
195.573 -185.988 -63.4632 210 210 210 255
195.573 -185.988 -60.2924 210 210 210 255
195.573 -185.988 -57.1215 210 210 210 255
195.573 -185.988 -53.9502 210 210 210 255
195.573 -185.988 -50.7787 210 210 210 255
195.573 -185.988 -47.607 210 210 210 255
195.573 -185.988 -44.4349 210 210 210 255
195.573 -185.988 -41.2629 210 210 210 255
195.573 -185.988 -38.0902 210 210 210 255
195.573 -185.988 -34.9174 210 210 210 255
195.573 -185.988 -31.7445 210 210 210 255
195.573 -185.988 -28.5712 210 210 210 255
195.573 -185.988 -25.3979 210 210 210 255
195.573 -185.988 -22.2241 210 210 210 255
195.573 -185.988 -19.05 210 210 210 255
195.573 -185.988 -15.8757 210 210 210 255
195.573 -185.988 -12.7012 210 210 210 255
195.573 -185.988 -9.52625 210 210 210 255
195.573 -185.988 -6.3512 210 210 210 255
195.573 -185.988 -3.17572 210 210 210 255
195.573 -185.988 -6.10352e-05 210 210 210 255
196.191 -183.757 -614.032 210 210 210 255
196.191 -183.757 -611.195 210 210 210 255
196.191 -183.757 -608.352 210 210 210 255
196.191 -183.757 -605.505 210 210 210 255
196.191 -183.757 -602.652 210 210 210 255
196.191 -183.757 -599.795 210 210 210 255
196.191 -183.757 -596.933 210 210 210 255
196.191 -183.757 -594.066 210 210 210 255
196.191 -183.757 -591.194 210 210 210 255
196.191 -183.757 -588.317 210 210 210 255
196.191 -183.757 -585.436 210 210 210 255
196.191 -183.757 -582.55 210 210 210 255
196.191 -183.757 -579.66 210 210 210 255
196.191 -183.757 -576.765 210 210 210 255
196.191 -183.757 -573.865 210 210 210 255
196.191 -183.757 -570.962 210 210 210 255
196.191 -183.757 -568.053 210 210 210 255
196.191 -183.757 -565.141 210 210 210 255
196.191 -183.757 -562.224 210 210 210 255
196.191 -183.757 -559.303 210 210 210 255
196.191 -183.757 -556.378 210 210 210 255
196.191 -183.757 -553.449 210 210 210 255
196.191 -183.757 -550.516 210 210 210 255
196.191 -183.757 -547.579 210 210 210 255
196.191 -183.757 -544.638 210 210 210 255
196.191 -183.757 -541.693 210 210 210 255
196.191 -183.757 -538.743 210 210 210 255
196.191 -183.757 -535.791 210 210 210 255
196.191 -183.757 -532.834 210 210 210 255
196.191 -183.757 -529.874 210 210 210 255
196.191 -183.757 -526.91 210 210 210 255
196.191 -183.757 -523.942 210 210 210 255
196.191 -183.757 -520.971 210 210 210 255
196.191 -183.757 -517.996 210 210 210 255
196.191 -183.757 -515.018 210 210 210 255
196.191 -183.757 -512.036 210 210 210 255
196.191 -183.757 -509.051 210 210 210 255
196.191 -183.757 -506.063 210 210 210 255
196.191 -183.757 -503.071 210 210 210 255
196.191 -183.757 -500.076 210 210 210 255
196.191 -183.757 -497.077 210 210 210 255
196.191 -183.757 -494.076 210 210 210 255
196.191 -183.757 -491.071 210 210 210 255
196.191 -183.757 -488.063 210 210 210 255
196.191 -183.757 -485.052 210 210 210 255
196.191 -183.757 -482.038 210 210 210 255
196.191 -183.757 -479.021 210 210 210 255
196.191 -183.757 -476.002 210 210 210 255
196.191 -183.757 -472.979 210 210 210 255
196.191 -183.757 -469.953 210 210 210 255
196.191 -183.757 -466.925 210 210 210 255
196.191 -183.757 -463.893 210 210 210 255
196.191 -183.757 -460.859 210 210 210 255
196.191 -183.757 -457.823 210 210 210 255
196.191 -183.757 -454.783 210 210 210 255
196.191 -183.757 -451.741 210 210 210 255
196.191 -183.757 -448.697 210 210 210 255
196.191 -183.757 -445.65 210 210 210 255
196.191 -183.757 -442.6 210 210 210 255
196.191 -183.757 -439.548 210 210 210 255
196.191 -183.757 -436.493 210 210 210 255
196.191 -183.757 -433.436 210 210 210 255
196.191 -183.757 -430.377 210 210 210 255
196.191 -183.757 -427.315 210 210 210 255
196.191 -183.757 -424.251 210 210 210 255
196.191 -183.757 -421.185 210 210 210 255
196.191 -183.757 -418.116 210 210 210 255
196.191 -183.757 -415.045 210 210 210 255
196.191 -183.757 -411.972 210 210 210 255
196.191 -183.757 -408.897 210 210 210 255
196.191 -183.757 -405.82 210 210 210 255
196.191 -183.757 -402.741 210 210 210 255
196.191 -183.757 -399.66 210 210 210 255
196.191 -183.757 -396.577 210 210 210 255
196.191 -183.757 -393.492 210 210 210 255
196.191 -183.757 -390.405 210 210 210 255
196.191 -183.757 -387.316 210 210 210 255
196.191 -183.757 -384.225 210 210 210 255
196.191 -183.757 -381.132 210 210 210 255
196.191 -183.757 -378.038 210 210 210 255
196.191 -183.757 -374.941 210 210 210 255
196.191 -183.757 -371.844 210 210 210 255
196.191 -183.757 -368.744 210 210 210 255
196.191 -183.757 -365.642 210 210 210 255
196.191 -183.757 -362.539 210 210 210 255
196.191 -183.757 -359.435 210 210 210 255
196.191 -183.757 -356.329 210 210 210 255
196.191 -183.757 -353.221 210 210 210 255
196.191 -183.757 -350.111 210 210 210 255
196.191 -183.757 -347 210 210 210 255
196.191 -183.757 -343.888 210 210 210 255
196.191 -183.757 -340.774 210 210 210 255
196.191 -183.757 -337.659 210 210 210 255
196.191 -183.757 -334.542 210 210 210 255
196.191 -183.757 -331.424 210 210 210 255
196.191 -183.757 -328.305 210 210 210 255
196.191 -183.757 -325.184 210 210 210 255
196.191 -183.757 -322.062 210 210 210 255
196.191 -183.757 -318.939 210 210 210 255
196.191 -183.757 -315.815 210 210 210 255
196.191 -183.757 -312.689 210 210 210 255
196.191 -183.757 -309.562 210 210 210 255
196.191 -183.757 -306.434 210 210 210 255
196.191 -183.757 -303.305 210 210 210 255
196.191 -183.757 -300.174 210 210 210 255
196.191 -183.757 -297.043 210 210 210 255
196.191 -183.757 -293.911 210 210 210 255
196.191 -183.757 -290.777 210 210 210 255
196.191 -183.757 -287.642 210 210 210 255
196.191 -183.757 -284.507 210 210 210 255
196.191 -183.757 -281.37 210 210 210 255
196.191 -183.757 -278.232 210 210 210 255
196.191 -183.757 -275.094 210 210 210 255
196.191 -183.757 -271.954 210 210 210 255
196.191 -183.757 -268.814 210 210 210 255
196.191 -183.757 -265.673 210 210 210 255
196.191 -183.757 -262.53 210 210 210 255
196.191 -183.757 -259.388 210 210 210 255
196.191 -183.757 -256.244 210 210 210 255
196.191 -183.757 -253.099 210 210 210 255
196.191 -183.757 -249.953 210 210 210 255
196.191 -183.757 -246.807 210 210 210 255
196.191 -183.757 -243.66 210 210 210 255
196.191 -183.757 -240.513 210 210 210 255
196.191 -183.757 -237.364 210 210 210 255
196.191 -183.757 -234.215 210 210 210 255
196.191 -183.757 -231.065 210 210 210 255
196.191 -183.757 -227.915 210 210 210 255
196.191 -183.757 -224.763 210 210 210 255
196.191 -183.757 -221.612 210 210 210 255
196.191 -183.757 -218.459 210 210 210 255
196.191 -183.757 -215.306 210 210 210 255
196.191 -183.757 -212.152 210 210 210 255
196.191 -183.757 -208.998 210 210 210 255
196.191 -183.757 -205.843 210 210 210 255
196.191 -183.757 -202.688 210 210 210 255
196.191 -183.757 -199.532 210 210 210 255
196.191 -183.757 -196.376 210 210 210 255
196.191 -183.757 -193.219 210 210 210 255
196.191 -183.757 -190.062 210 210 210 255
196.191 -183.757 -186.904 210 210 210 255
196.191 -183.757 -183.745 210 210 210 255
196.191 -183.757 -180.586 210 210 210 255
196.191 -183.757 -177.427 210 210 210 255
196.191 -183.757 -174.268 210 210 210 255
196.191 -183.757 -171.107 210 210 210 255
196.191 -183.757 -167.947 210 210 210 255
196.191 -183.757 -164.786 210 210 210 255
196.191 -183.757 -161.624 210 210 210 255
196.191 -183.757 -158.462 210 210 210 255
196.191 -183.757 -155.3 210 210 210 255
196.191 -183.757 -152.138 210 210 210 255
196.191 -183.757 -148.975 210 210 210 255
196.191 -183.757 -145.812 210 210 210 255
196.191 -183.757 -142.648 210 210 210 255
196.191 -183.757 -139.484 210 210 210 255
196.191 -183.757 -136.32 210 210 210 255
196.191 -183.757 -133.155 210 210 210 255
196.191 -183.757 -129.99 210 210 210 255
196.191 -183.757 -126.825 210 210 210 255
196.191 -183.757 -123.66 210 210 210 255
196.191 -183.757 -120.494 210 210 210 255
196.191 -183.757 -117.328 210 210 210 255
196.191 -183.757 -114.161 210 210 210 255
196.191 -183.757 -110.995 210 210 210 255
196.191 -183.757 -107.828 210 210 210 255
196.191 -183.757 -104.66 210 210 210 255
196.191 -183.757 -101.493 210 210 210 255
196.191 -183.757 -98.3252 210 210 210 255
196.191 -183.757 -95.1572 210 210 210 255
196.191 -183.757 -91.9888 210 210 210 255
196.191 -183.757 -88.8204 210 210 210 255
196.191 -183.757 -85.6514 210 210 210 255
196.191 -183.757 -82.4825 210 210 210 255
196.191 -183.757 -79.3132 210 210 210 255
196.191 -183.757 -76.1437 210 210 210 255
196.191 -183.757 -72.9741 210 210 210 255
196.191 -183.757 -69.8037 210 210 210 255
196.191 -183.757 -66.6335 210 210 210 255
196.191 -183.757 -63.4631 210 210 210 255
196.191 -183.757 -60.2924 210 210 210 255
196.191 -183.757 -57.1212 210 210 210 255
196.191 -183.757 -53.9501 210 210 210 255
196.191 -183.757 -50.7785 210 210 210 255
196.191 -183.757 -47.607 210 210 210 255
196.191 -183.757 -44.4349 210 210 210 255
196.191 -183.757 -41.2627 210 210 210 255
196.191 -183.757 -38.0903 210 210 210 255
196.191 -183.757 -34.9175 210 210 210 255
196.191 -183.757 -31.7444 210 210 210 255
196.191 -183.757 -28.5713 210 210 210 255
196.191 -183.757 -25.3978 210 210 210 255
196.191 -183.757 -22.2241 210 210 210 255
196.191 -183.757 -19.05 210 210 210 255
196.191 -183.757 -15.8757 210 210 210 255
196.191 -183.757 -12.7011 210 210 210 255
196.191 -183.757 -9.52631 210 210 210 255
196.191 -183.757 -6.3512 210 210 210 255
196.191 -183.757 -3.17584 210 210 210 255
196.191 -183.757 0 210 210 210 255
196.801 -181.534 -613.274 210 210 210 255
196.801 -181.534 -610.452 210 210 210 255
196.801 -181.534 -607.625 210 210 210 255
196.801 -181.534 -604.792 210 210 210 255
196.801 -181.534 -601.954 210 210 210 255
196.801 -181.534 -599.111 210 210 210 255
196.801 -181.534 -596.262 210 210 210 255
196.801 -181.534 -593.409 210 210 210 255
196.801 -181.534 -590.551 210 210 210 255
196.801 -181.534 -587.688 210 210 210 255
196.801 -181.534 -584.819 210 210 210 255
196.801 -181.534 -581.947 210 210 210 255
196.801 -181.534 -579.069 210 210 210 255
196.801 -181.534 -576.186 210 210 210 255
196.801 -181.534 -573.299 210 210 210 255
196.801 -181.534 -570.408 210 210 210 255
196.801 -181.534 -567.512 210 210 210 255
196.801 -181.534 -564.611 210 210 210 255
196.801 -181.534 -561.706 210 210 210 255
196.801 -181.534 -558.796 210 210 210 255
196.801 -181.534 -555.882 210 210 210 255
196.801 -181.534 -552.964 210 210 210 255
196.801 -181.534 -550.042 210 210 210 255
196.801 -181.534 -547.115 210 210 210 255
196.801 -181.534 -544.184 210 210 210 255
196.801 -181.534 -541.25 210 210 210 255
196.801 -181.534 -538.311 210 210 210 255
196.801 -181.534 -535.368 210 210 210 255
196.801 -181.534 -532.421 210 210 210 255
196.801 -181.534 -529.47 210 210 210 255
196.801 -181.534 -526.516 210 210 210 255
196.801 -181.534 -523.557 210 210 210 255
196.801 -181.534 -520.595 210 210 210 255
196.801 -181.534 -517.629 210 210 210 255
196.801 -181.534 -514.66 210 210 210 255
196.801 -181.534 -511.687 210 210 210 255
196.801 -181.534 -508.71 210 210 210 255
196.801 -181.534 -505.73 210 210 210 255
196.801 -181.534 -502.746 210 210 210 255
196.801 -181.534 -499.759 210 210 210 255
196.801 -181.534 -496.768 210 210 210 255
196.801 -181.534 -493.775 210 210 210 255
196.801 -181.534 -490.777 210 210 210 255
196.801 -181.534 -487.777 210 210 210 255
196.801 -181.534 -484.773 210 210 210 255
196.801 -181.534 -481.767 210 210 210 255
196.801 -181.534 -478.757 210 210 210 255
196.801 -181.534 -475.744 210 210 210 255
196.801 -181.534 -472.728 210 210 210 255
196.801 -181.534 -469.709 210 210 210 255
196.801 -181.534 -466.687 210 210 210 255
196.801 -181.534 -463.662 210 210 210 255
196.801 -181.534 -460.634 210 210 210 255
196.801 -181.534 -457.603 210 210 210 255
196.801 -181.534 -454.57 210 210 210 255
196.801 -181.534 -451.534 210 210 210 255
196.801 -181.534 -448.495 210 210 210 255
196.801 -181.534 -445.453 210 210 210 255
196.801 -181.534 -442.409 210 210 210 255
196.801 -181.534 -439.362 210 210 210 255
196.801 -181.534 -436.313 210 210 210 255
196.801 -181.534 -433.261 210 210 210 255
196.801 -181.534 -430.207 210 210 210 255
196.801 -181.534 -427.15 210 210 210 255
196.801 -181.534 -424.09 210 210 210 255
196.801 -181.534 -421.029 210 210 210 255
196.801 -181.534 -417.965 210 210 210 255
196.801 -181.534 -414.899 210 210 210 255
196.801 -181.534 -411.83 210 210 210 255
196.801 -181.534 -408.759 210 210 210 255
196.801 -181.534 -405.687 210 210 210 255
196.801 -181.534 -402.612 210 210 210 255
196.801 -181.534 -399.534 210 210 210 255
196.801 -181.534 -396.455 210 210 210 255
196.801 -181.534 -393.374 210 210 210 255
196.801 -181.534 -390.29 210 210 210 255
196.801 -181.534 -387.205 210 210 210 255
196.801 -181.534 -384.118 210 210 210 255
196.801 -181.534 -381.029 210 210 210 255
196.801 -181.534 -377.938 210 210 210 255
196.801 -181.534 -374.844 210 210 210 255
196.801 -181.534 -371.75 210 210 210 255
196.801 -181.534 -368.653 210 210 210 255
196.801 -181.534 -365.555 210 210 210 255
196.801 -181.534 -362.455 210 210 210 255
196.801 -181.534 -359.353 210 210 210 255
196.801 -181.534 -356.25 210 210 210 255
196.801 -181.534 -353.145 210 210 210 255
196.801 -181.534 -350.038 210 210 210 255
196.801 -181.534 -346.93 210 210 210 255
196.801 -181.534 -343.82 210 210 210 255
196.801 -181.534 -340.709 210 210 210 255
196.801 -181.534 -337.596 210 210 210 255
196.801 -181.534 -334.481 210 210 210 255
196.801 -181.534 -331.366 210 210 210 255
196.801 -181.534 -328.249 210 210 210 255
196.801 -181.534 -325.13 210 210 210 255
196.801 -181.534 -322.01 210 210 210 255
196.801 -181.534 -318.889 210 210 210 255
196.801 -181.534 -315.766 210 210 210 255
196.801 -181.534 -312.643 210 210 210 255
196.801 -181.534 -309.518 210 210 210 255
196.801 -181.534 -306.391 210 210 210 255
196.801 -181.534 -303.264 210 210 210 255
196.801 -181.534 -300.135 210 210 210 255
196.801 -181.534 -297.005 210 210 210 255
196.801 -181.534 -293.874 210 210 210 255
196.801 -181.534 -290.742 210 210 210 255
196.801 -181.534 -287.609 210 210 210 255
196.801 -181.534 -284.475 210 210 210 255
196.801 -181.534 -281.34 210 210 210 255
196.801 -181.534 -278.203 210 210 210 255
196.801 -181.534 -275.066 210 210 210 255
196.801 -181.534 -271.928 210 210 210 255
196.801 -181.534 -268.789 210 210 210 255
196.801 -181.534 -265.649 210 210 210 255
196.801 -181.534 -262.508 210 210 210 255
196.801 -181.534 -259.365 210 210 210 255
196.801 -181.534 -256.223 210 210 210 255
196.801 -181.534 -253.079 210 210 210 255
196.801 -181.534 -249.935 210 210 210 255
196.801 -181.534 -246.789 210 210 210 255
196.801 -181.534 -243.643 210 210 210 255
196.801 -181.534 -240.496 210 210 210 255
196.801 -181.534 -237.349 210 210 210 255
196.801 -181.534 -234.2 210 210 210 255
196.801 -181.534 -231.051 210 210 210 255
196.801 -181.534 -227.902 210 210 210 255
196.801 -181.534 -224.751 210 210 210 255
196.801 -181.534 -221.6 210 210 210 255
196.801 -181.534 -218.448 210 210 210 255
196.801 -181.534 -215.296 210 210 210 255
196.801 -181.534 -212.143 210 210 210 255
196.801 -181.534 -208.989 210 210 210 255
196.801 -181.534 -205.835 210 210 210 255
196.801 -181.534 -202.68 210 210 210 255
196.801 -181.534 -199.525 210 210 210 255
196.801 -181.534 -196.369 210 210 210 255
196.801 -181.534 -193.212 210 210 210 255
196.801 -181.534 -190.055 210 210 210 255
196.801 -181.534 -186.898 210 210 210 255
196.801 -181.534 -183.74 210 210 210 255
196.801 -181.534 -180.581 210 210 210 255
196.801 -181.534 -177.422 210 210 210 255
196.801 -181.534 -174.263 210 210 210 255
196.801 -181.534 -171.103 210 210 210 255
196.801 -181.534 -167.943 210 210 210 255
196.801 -181.534 -164.782 210 210 210 255
196.801 -181.534 -161.621 210 210 210 255
196.801 -181.534 -158.459 210 210 210 255
196.801 -181.534 -155.298 210 210 210 255
196.801 -181.534 -152.135 210 210 210 255
196.801 -181.534 -148.973 210 210 210 255
196.801 -181.534 -145.81 210 210 210 255
196.801 -181.534 -142.646 210 210 210 255
196.801 -181.534 -139.482 210 210 210 255
196.801 -181.534 -136.318 210 210 210 255
196.801 -181.534 -133.154 210 210 210 255
196.801 -181.534 -129.989 210 210 210 255
196.801 -181.534 -126.824 210 210 210 255
196.801 -181.534 -123.658 210 210 210 255
196.801 -181.534 -120.493 210 210 210 255
196.801 -181.534 -117.327 210 210 210 255
196.801 -181.534 -114.16 210 210 210 255
196.801 -181.534 -110.994 210 210 210 255
196.801 -181.534 -107.827 210 210 210 255
196.801 -181.534 -104.66 210 210 210 255
196.801 -181.534 -101.492 210 210 210 255
196.801 -181.534 -98.3246 210 210 210 255
196.801 -181.534 -95.1566 210 210 210 255
196.801 -181.534 -91.9885 210 210 210 255
196.801 -181.534 -88.8199 210 210 210 255
196.801 -181.534 -85.6512 210 210 210 255
196.801 -181.534 -82.4822 210 210 210 255
196.801 -181.534 -79.3131 210 210 210 255
196.801 -181.534 -76.1435 210 210 210 255
196.801 -181.534 -72.9738 210 210 210 255
196.801 -181.534 -69.8037 210 210 210 255
196.801 -181.534 -66.6337 210 210 210 255
196.801 -181.534 -63.463 210 210 210 255
196.801 -181.534 -60.2922 210 210 210 255
196.801 -181.534 -57.1213 210 210 210 255
196.801 -181.534 -53.9501 210 210 210 255
196.801 -181.534 -50.7787 210 210 210 255
196.801 -181.534 -47.6068 210 210 210 255
196.801 -181.534 -44.4349 210 210 210 255
196.801 -181.534 -41.2626 210 210 210 255
196.801 -181.534 -38.0902 210 210 210 255
196.801 -181.534 -34.9175 210 210 210 255
196.801 -181.534 -31.7445 210 210 210 255
196.801 -181.534 -28.5714 210 210 210 255
196.801 -181.534 -25.3978 210 210 210 255
196.801 -181.534 -22.2239 210 210 210 255
196.801 -181.534 -19.0501 210 210 210 255
196.801 -181.534 -15.8757 210 210 210 255
196.801 -181.534 -12.7012 210 210 210 255
196.801 -181.534 -9.52631 210 210 210 255
196.801 -181.534 -6.3512 210 210 210 255
196.801 -181.534 -3.17584 210 210 210 255
196.801 -181.534 0 210 210 210 255
197.4 -179.32 -612.529 210 210 210 255
197.4 -179.32 -609.721 210 210 210 255
197.4 -179.32 -606.908 210 210 210 255
197.4 -179.32 -604.09 210 210 210 255
197.4 -179.32 -601.266 210 210 210 255
197.4 -179.32 -598.437 210 210 210 255
197.4 -179.32 -595.602 210 210 210 255
197.4 -179.32 -592.763 210 210 210 255
197.4 -179.32 -589.918 210 210 210 255
197.4 -179.32 -587.068 210 210 210 255
197.4 -179.32 -584.213 210 210 210 255
197.4 -179.32 -581.352 210 210 210 255
197.4 -179.32 -578.487 210 210 210 255
197.4 -179.32 -575.617 210 210 210 255
197.4 -179.32 -572.742 210 210 210 255
197.4 -179.32 -569.863 210 210 210 255
197.4 -179.32 -566.978 210 210 210 255
197.4 -179.32 -564.089 210 210 210 255
197.4 -179.32 -561.195 210 210 210 255
197.4 -179.32 -558.297 210 210 210 255
197.4 -179.32 -555.394 210 210 210 255
197.4 -179.32 -552.487 210 210 210 255
197.4 -179.32 -549.575 210 210 210 255
197.4 -179.32 -546.659 210 210 210 255
197.4 -179.32 -543.738 210 210 210 255
197.4 -179.32 -540.814 210 210 210 255
197.4 -179.32 -537.885 210 210 210 255
197.4 -179.32 -534.952 210 210 210 255
197.4 -179.32 -532.014 210 210 210 255
197.4 -179.32 -529.073 210 210 210 255
197.4 -179.32 -526.128 210 210 210 255
197.4 -179.32 -523.178 210 210 210 255
197.4 -179.32 -520.225 210 210 210 255
197.4 -179.32 -517.268 210 210 210 255
197.4 -179.32 -514.307 210 210 210 255
197.4 -179.32 -511.343 210 210 210 255
197.4 -179.32 -508.374 210 210 210 255
197.4 -179.32 -505.402 210 210 210 255
197.4 -179.32 -502.426 210 210 210 255
197.4 -179.32 -499.447 210 210 210 255
197.4 -179.32 -496.464 210 210 210 255
197.4 -179.32 -493.478 210 210 210 255
197.4 -179.32 -490.488 210 210 210 255
197.4 -179.32 -487.495 210 210 210 255
197.4 -179.32 -484.499 210 210 210 255
197.4 -179.32 -481.499 210 210 210 255
197.4 -179.32 -478.496 210 210 210 255
197.4 -179.32 -475.49 210 210 210 255
197.4 -179.32 -472.48 210 210 210 255
197.4 -179.32 -469.468 210 210 210 255
197.4 -179.32 -466.452 210 210 210 255
197.4 -179.32 -463.433 210 210 210 255
197.4 -179.32 -460.412 210 210 210 255
197.4 -179.32 -457.387 210 210 210 255
197.4 -179.32 -454.359 210 210 210 255
197.4 -179.32 -451.329 210 210 210 255
197.4 -179.32 -448.296 210 210 210 255
197.4 -179.32 -445.26 210 210 210 255
197.4 -179.32 -442.221 210 210 210 255
197.4 -179.32 -439.179 210 210 210 255
197.4 -179.32 -436.135 210 210 210 255
197.4 -179.32 -433.088 210 210 210 255
197.4 -179.32 -430.039 210 210 210 255
197.4 -179.32 -426.987 210 210 210 255
197.4 -179.32 -423.932 210 210 210 255
197.4 -179.32 -420.875 210 210 210 255
197.4 -179.32 -417.816 210 210 210 255
197.4 -179.32 -414.754 210 210 210 255
197.4 -179.32 -411.69 210 210 210 255
197.4 -179.32 -408.624 210 210 210 255
197.4 -179.32 -405.555 210 210 210 255
197.4 -179.32 -402.484 210 210 210 255
197.4 -179.32 -399.411 210 210 210 255
197.4 -179.32 -396.335 210 210 210 255
197.4 -179.32 -393.258 210 210 210 255
197.4 -179.32 -390.178 210 210 210 255
197.4 -179.32 -387.096 210 210 210 255
197.4 -179.32 -384.012 210 210 210 255
197.4 -179.32 -380.927 210 210 210 255
197.4 -179.32 -377.839 210 210 210 255
197.4 -179.32 -374.749 210 210 210 255
197.4 -179.32 -371.658 210 210 210 255
197.4 -179.32 -368.564 210 210 210 255
197.4 -179.32 -365.469 210 210 210 255
197.4 -179.32 -362.372 210 210 210 255
197.4 -179.32 -359.273 210 210 210 255
197.4 -179.32 -356.172 210 210 210 255
197.4 -179.32 -353.07 210 210 210 255
197.4 -179.32 -349.966 210 210 210 255
197.4 -179.32 -346.86 210 210 210 255
197.4 -179.32 -343.753 210 210 210 255
197.4 -179.32 -340.644 210 210 210 255
197.4 -179.32 -337.533 210 210 210 255
197.4 -179.32 -334.421 210 210 210 255
197.4 -179.32 -331.308 210 210 210 255
197.4 -179.32 -328.193 210 210 210 255
197.4 -179.32 -325.076 210 210 210 255
197.4 -179.32 -321.959 210 210 210 255
197.4 -179.32 -318.839 210 210 210 255
197.4 -179.32 -315.719 210 210 210 255
197.4 -179.32 -312.597 210 210 210 255
197.4 -179.32 -309.474 210 210 210 255
197.4 -179.32 -306.349 210 210 210 255
197.4 -179.32 -303.223 210 210 210 255
197.4 -179.32 -300.096 210 210 210 255
197.4 -179.32 -296.968 210 210 210 255
197.4 -179.32 -293.839 210 210 210 255
197.4 -179.32 -290.708 210 210 210 255
197.4 -179.32 -287.576 210 210 210 255
197.4 -179.32 -284.444 210 210 210 255
197.4 -179.32 -281.31 210 210 210 255
197.4 -179.32 -278.175 210 210 210 255
197.4 -179.32 -275.039 210 210 210 255
197.4 -179.32 -271.902 210 210 210 255
197.4 -179.32 -268.764 210 210 210 255
197.4 -179.32 -265.625 210 210 210 255
197.4 -179.32 -262.485 210 210 210 255
197.4 -179.32 -259.344 210 210 210 255
197.4 -179.32 -256.202 210 210 210 255
197.4 -179.32 -253.06 210 210 210 255
197.4 -179.32 -249.916 210 210 210 255
197.4 -179.32 -246.772 210 210 210 255
197.4 -179.32 -243.627 210 210 210 255
197.4 -179.32 -240.481 210 210 210 255
197.4 -179.32 -237.334 210 210 210 255
197.4 -179.32 -234.186 210 210 210 255
197.4 -179.32 -231.038 210 210 210 255
197.4 -179.32 -227.889 210 210 210 255
197.4 -179.32 -224.739 210 210 210 255
197.4 -179.32 -221.589 210 210 210 255
197.4 -179.32 -218.438 210 210 210 255
197.4 -179.32 -215.286 210 210 210 255
197.4 -179.32 -212.133 210 210 210 255
197.4 -179.32 -208.98 210 210 210 255
197.4 -179.32 -205.826 210 210 210 255
197.4 -179.32 -202.672 210 210 210 255
197.4 -179.32 -199.517 210 210 210 255
197.4 -179.32 -196.362 210 210 210 255
197.4 -179.32 -193.206 210 210 210 255
197.4 -179.32 -190.049 210 210 210 255
197.4 -179.32 -186.892 210 210 210 255
197.4 -179.32 -183.734 210 210 210 255
197.4 -179.32 -180.576 210 210 210 255
197.4 -179.32 -177.418 210 210 210 255
197.4 -179.32 -174.258 210 210 210 255
197.4 -179.32 -171.099 210 210 210 255
197.4 -179.32 -167.939 210 210 210 255
197.4 -179.32 -164.779 210 210 210 255
197.4 -179.32 -161.618 210 210 210 255
197.4 -179.32 -158.456 210 210 210 255
197.4 -179.32 -155.295 210 210 210 255
197.4 -179.32 -152.133 210 210 210 255
197.4 -179.32 -148.97 210 210 210 255
197.4 -179.32 -145.807 210 210 210 255
197.4 -179.32 -142.644 210 210 210 255
197.4 -179.32 -139.481 210 210 210 255
197.4 -179.32 -136.317 210 210 210 255
197.4 -179.32 -133.152 210 210 210 255
197.4 -179.32 -129.988 210 210 210 255
197.4 -179.32 -126.823 210 210 210 255
197.4 -179.32 -123.657 210 210 210 255
197.4 -179.32 -120.492 210 210 210 255
197.4 -179.32 -117.326 210 210 210 255
197.4 -179.32 -114.16 210 210 210 255
197.4 -179.32 -110.993 210 210 210 255
197.4 -179.32 -107.826 210 210 210 255
197.4 -179.32 -104.659 210 210 210 255
197.4 -179.32 -101.492 210 210 210 255
197.4 -179.32 -98.3244 210 210 210 255
197.4 -179.32 -95.1563 210 210 210 255
197.4 -179.32 -91.9881 210 210 210 255
197.4 -179.32 -88.8198 210 210 210 255
197.4 -179.32 -85.6512 210 210 210 255
197.4 -179.32 -82.482 210 210 210 255
197.4 -179.32 -79.3127 210 210 210 255
197.4 -179.32 -76.1433 210 210 210 255
197.4 -179.32 -72.9737 210 210 210 255
197.4 -179.32 -69.8037 210 210 210 255
197.4 -179.32 -66.6334 210 210 210 255
197.4 -179.32 -63.463 210 210 210 255
197.4 -179.32 -60.2922 210 210 210 255
197.4 -179.32 -57.1212 210 210 210 255
197.4 -179.32 -53.95 210 210 210 255
197.4 -179.32 -50.7785 210 210 210 255
197.4 -179.32 -47.6069 210 210 210 255
197.4 -179.32 -44.4349 210 210 210 255
197.4 -179.32 -41.2628 210 210 210 255
197.4 -179.32 -38.0903 210 210 210 255
197.4 -179.32 -34.9175 210 210 210 255
197.4 -179.32 -31.7445 210 210 210 255
197.4 -179.32 -28.5713 210 210 210 255
197.4 -179.32 -25.3979 210 210 210 255
197.4 -179.32 -22.2241 210 210 210 255
197.4 -179.32 -19.05 210 210 210 255
197.4 -179.32 -15.8759 210 210 210 255
197.4 -179.32 -12.7012 210 210 210 255
197.4 -179.32 -9.52625 210 210 210 255
197.4 -179.32 -6.35114 210 210 210 255
197.4 -179.32 -3.17572 210 210 210 255
197.4 -179.32 -6.10352e-05 210 210 210 255
197.991 -177.114 -611.794 210 210 210 255
197.991 -177.114 -609.001 210 210 210 255
197.991 -177.114 -606.203 210 210 210 255
197.991 -177.114 -603.399 210 210 210 255
197.991 -177.114 -600.589 210 210 210 255
197.991 -177.114 -597.773 210 210 210 255
197.991 -177.114 -594.953 210 210 210 255
197.991 -177.114 -592.126 210 210 210 255
197.991 -177.114 -589.294 210 210 210 255
197.991 -177.114 -586.457 210 210 210 255
197.991 -177.114 -583.615 210 210 210 255
197.991 -177.114 -580.767 210 210 210 255
197.991 -177.114 -577.915 210 210 210 255
197.991 -177.114 -575.057 210 210 210 255
197.991 -177.114 -572.194 210 210 210 255
197.991 -177.114 -569.326 210 210 210 255
197.991 -177.114 -566.453 210 210 210 255
197.991 -177.114 -563.575 210 210 210 255
197.991 -177.114 -560.693 210 210 210 255
197.991 -177.114 -557.805 210 210 210 255
197.991 -177.114 -554.913 210 210 210 255
197.991 -177.114 -552.017 210 210 210 255
197.991 -177.114 -549.115 210 210 210 255
197.991 -177.114 -546.209 210 210 210 255
197.991 -177.114 -543.299 210 210 210 255
197.991 -177.114 -540.384 210 210 210 255
197.991 -177.114 -537.465 210 210 210 255
197.991 -177.114 -534.542 210 210 210 255
197.991 -177.114 -531.614 210 210 210 255
197.991 -177.114 -528.682 210 210 210 255
197.991 -177.114 -525.746 210 210 210 255
197.991 -177.114 -522.805 210 210 210 255
197.991 -177.114 -519.861 210 210 210 255
197.991 -177.114 -516.912 210 210 210 255
197.991 -177.114 -513.96 210 210 210 255
197.991 -177.114 -511.004 210 210 210 255
197.991 -177.114 -508.044 210 210 210 255
197.991 -177.114 -505.08 210 210 210 255
197.991 -177.114 -502.112 210 210 210 255
197.991 -177.114 -499.14 210 210 210 255
197.991 -177.114 -496.165 210 210 210 255
197.991 -177.114 -493.186 210 210 210 255
197.991 -177.114 -490.204 210 210 210 255
197.991 -177.114 -487.218 210 210 210 255
197.991 -177.114 -484.228 210 210 210 255
197.991 -177.114 -481.236 210 210 210 255
197.991 -177.114 -478.239 210 210 210 255
197.991 -177.114 -475.24 210 210 210 255
197.991 -177.114 -472.237 210 210 210 255
197.991 -177.114 -469.231 210 210 210 255
197.991 -177.114 -466.221 210 210 210 255
197.991 -177.114 -463.209 210 210 210 255
197.991 -177.114 -460.193 210 210 210 255
197.991 -177.114 -457.174 210 210 210 255
197.991 -177.114 -454.152 210 210 210 255
197.991 -177.114 -451.128 210 210 210 255
197.991 -177.114 -448.1 210 210 210 255
197.991 -177.114 -445.069 210 210 210 255
197.991 -177.114 -442.036 210 210 210 255
197.991 -177.114 -438.999 210 210 210 255
197.991 -177.114 -435.96 210 210 210 255
197.991 -177.114 -432.919 210 210 210 255
197.991 -177.114 -429.874 210 210 210 255
197.991 -177.114 -426.827 210 210 210 255
197.991 -177.114 -423.777 210 210 210 255
197.991 -177.114 -420.724 210 210 210 255
197.991 -177.114 -417.67 210 210 210 255
197.991 -177.114 -414.612 210 210 210 255
197.991 -177.114 -411.552 210 210 210 255
197.991 -177.114 -408.49 210 210 210 255
197.991 -177.114 -405.425 210 210 210 255
197.991 -177.114 -402.358 210 210 210 255
197.991 -177.114 -399.289 210 210 210 255
197.991 -177.114 -396.217 210 210 210 255
197.991 -177.114 -393.143 210 210 210 255
197.991 -177.114 -390.067 210 210 210 255
197.991 -177.114 -386.989 210 210 210 255
197.991 -177.114 -383.909 210 210 210 255
197.991 -177.114 -380.826 210 210 210 255
197.991 -177.114 -377.742 210 210 210 255
197.991 -177.114 -374.655 210 210 210 255
197.991 -177.114 -371.567 210 210 210 255
197.991 -177.114 -368.476 210 210 210 255
197.991 -177.114 -365.384 210 210 210 255
197.991 -177.114 -362.29 210 210 210 255
197.991 -177.114 -359.194 210 210 210 255
197.991 -177.114 -356.096 210 210 210 255
197.991 -177.114 -352.996 210 210 210 255
197.991 -177.114 -349.895 210 210 210 255
197.991 -177.114 -346.791 210 210 210 255
197.991 -177.114 -343.687 210 210 210 255
197.991 -177.114 -340.58 210 210 210 255
197.991 -177.114 -337.472 210 210 210 255
197.991 -177.114 -334.362 210 210 210 255
197.991 -177.114 -331.251 210 210 210 255
197.991 -177.114 -328.138 210 210 210 255
197.991 -177.114 -325.024 210 210 210 255
197.991 -177.114 -321.908 210 210 210 255
197.991 -177.114 -318.791 210 210 210 255
197.991 -177.114 -315.672 210 210 210 255
197.991 -177.114 -312.552 210 210 210 255
197.991 -177.114 -309.431 210 210 210 255
197.991 -177.114 -306.308 210 210 210 255
197.991 -177.114 -303.184 210 210 210 255
197.991 -177.114 -300.058 210 210 210 255
197.991 -177.114 -296.932 210 210 210 255
197.991 -177.114 -293.804 210 210 210 255
197.991 -177.114 -290.675 210 210 210 255
197.991 -177.114 -287.544 210 210 210 255
197.991 -177.114 -284.413 210 210 210 255
197.991 -177.114 -281.281 210 210 210 255
197.991 -177.114 -278.147 210 210 210 255
197.991 -177.114 -275.012 210 210 210 255
197.991 -177.114 -271.876 210 210 210 255
197.991 -177.114 -268.739 210 210 210 255
197.991 -177.114 -265.602 210 210 210 255
197.991 -177.114 -262.463 210 210 210 255
197.991 -177.114 -259.323 210 210 210 255
197.991 -177.114 -256.182 210 210 210 255
197.991 -177.114 -253.041 210 210 210 255
197.991 -177.114 -249.898 210 210 210 255
197.991 -177.114 -246.755 210 210 210 255
197.991 -177.114 -243.61 210 210 210 255
197.991 -177.114 -240.465 210 210 210 255
197.991 -177.114 -237.319 210 210 210 255
197.991 -177.114 -234.172 210 210 210 255
197.991 -177.114 -231.025 210 210 210 255
197.991 -177.114 -227.876 210 210 210 255
197.991 -177.114 -224.727 210 210 210 255
197.991 -177.114 -221.577 210 210 210 255
197.991 -177.114 -218.427 210 210 210 255
197.991 -177.114 -215.276 210 210 210 255
197.991 -177.114 -212.124 210 210 210 255
197.991 -177.114 -208.971 210 210 210 255
197.991 -177.114 -205.818 210 210 210 255
197.991 -177.114 -202.664 210 210 210 255
197.991 -177.114 -199.51 210 210 210 255
197.991 -177.114 -196.355 210 210 210 255
197.991 -177.114 -193.199 210 210 210 255
197.991 -177.114 -190.043 210 210 210 255
197.991 -177.114 -186.886 210 210 210 255
197.991 -177.114 -183.729 210 210 210 255
197.991 -177.114 -180.571 210 210 210 255
197.991 -177.114 -177.413 210 210 210 255
197.991 -177.114 -174.254 210 210 210 255
197.991 -177.114 -171.095 210 210 210 255
197.991 -177.114 -167.935 210 210 210 255
197.991 -177.114 -164.775 210 210 210 255
197.991 -177.114 -161.615 210 210 210 255
197.991 -177.114 -158.454 210 210 210 255
197.991 -177.114 -155.292 210 210 210 255
197.991 -177.114 -152.13 210 210 210 255
197.991 -177.114 -148.968 210 210 210 255
197.991 -177.114 -145.805 210 210 210 255
197.991 -177.114 -142.642 210 210 210 255
197.991 -177.114 -139.479 210 210 210 255
197.991 -177.114 -136.315 210 210 210 255
197.991 -177.114 -133.151 210 210 210 255
197.991 -177.114 -129.986 210 210 210 255
197.991 -177.114 -126.821 210 210 210 255
197.991 -177.114 -123.656 210 210 210 255
