ply
format ascii 1.0
element vertex 1141
property float x
property float y
property float z
property uchar red
property uchar green
property uchar blue
property uchar alpha
end_header
427.243 -176.725 -417.968 210 210 210 255
427.243 -176.725 -414.243 210 210 210 255
427.243 -176.725 -410.514 210 210 210 255
427.243 -176.725 -406.779 210 210 210 255
427.243 -176.725 -403.039 210 210 210 255
427.243 -176.725 -399.293 210 210 210 255
427.243 -176.725 -395.543 210 210 210 255
427.243 -176.725 -391.788 210 210 210 255
427.243 -176.725 -388.028 210 210 210 255
427.243 -176.725 -384.263 210 210 210 255
427.243 -176.725 -380.494 210 210 210 255
427.243 -176.725 -376.72 210 210 210 255
427.243 -176.725 -372.942 210 210 210 255
427.243 -176.725 -369.159 210 210 210 255
427.243 -176.725 -365.372 210 210 210 255
427.243 -176.725 -361.581 210 210 210 255
427.243 -176.725 -357.786 210 210 210 255
427.243 -176.725 -353.987 210 210 210 255
427.243 -176.725 -350.184 210 210 210 255
427.243 -176.725 -346.377 210 210 210 255
427.243 -176.725 -342.567 210 210 210 255
427.243 -176.725 -338.753 210 210 210 255
427.243 -176.725 -334.935 210 210 210 255
427.243 -176.725 -331.113 210 210 210 255
427.243 -176.725 -327.289 210 210 210 255
427.243 -176.725 -323.461 210 210 210 255
427.243 -176.725 -319.629 210 210 210 255
427.243 -176.725 -315.795 210 210 210 255
427.243 -176.725 -311.957 210 210 210 255
427.243 -176.725 -308.117 210 210 210 255
427.243 -176.725 -304.273 210 210 210 255
427.243 -176.725 -300.427 210 210 210 255
427.243 -176.725 -296.578 210 210 210 255
427.243 -176.725 -292.726 210 210 210 255
427.243 -176.725 -288.871 210 210 210 255
427.243 -176.725 -285.014 210 210 210 255
427.243 -176.725 -281.154 210 210 210 255
427.243 -176.725 -277.292 210 210 210 255
427.243 -176.725 -273.428 210 210 210 255
427.243 -176.725 -269.561 210 210 210 255
427.243 -176.725 -265.692 210 210 210 255
427.243 -176.725 -261.821 210 210 210 255
427.243 -176.725 -257.947 210 210 210 255
427.243 -176.725 -254.072 210 210 210 255
427.243 -176.725 -250.195 210 210 210 255
427.243 -176.725 -246.315 210 210 210 255
427.243 -176.725 -242.434 210 210 210 255
427.243 -176.725 -238.551 210 210 210 255
427.243 -176.725 -234.666 210 210 210 255
427.243 -176.725 -230.78 210 210 210 255
427.243 -176.725 -226.892 210 210 210 255
427.243 -176.725 -223.002 210 210 210 255
427.243 -176.725 -219.111 210 210 210 255
427.243 -176.725 -215.218 210 210 210 255
427.243 -176.725 -211.324 210 210 210 255
427.243 -176.725 -207.428 210 210 210 255
427.243 -176.725 -203.531 210 210 210 255
427.243 -176.725 -199.633 210 210 210 255
427.243 -176.725 -195.734 210 210 210 255
427.243 -176.725 -191.834 210 210 210 255
427.243 -176.725 -187.932 210 210 210 255
427.243 -176.725 -184.029 210 210 210 255
427.243 -176.725 -180.125 210 210 210 255
427.243 -176.725 -176.221 210 210 210 255
427.243 -176.725 -172.315 210 210 210 255
427.243 -176.725 -168.408 210 210 210 255
427.243 -176.725 -164.501 210 210 210 255
427.243 -176.725 -160.592 210 210 210 255
427.243 -176.725 -156.683 210 210 210 255
427.243 -176.725 -152.773 210 210 210 255
427.243 -176.725 -148.863 210 210 210 255
427.243 -176.725 -144.952 210 210 210 255
427.243 -176.725 -141.04 210 210 210 255
427.243 -176.725 -137.127 210 210 210 255
427.243 -176.725 -133.214 210 210 210 255
427.243 -176.725 -129.3 210 210 210 255
427.243 -176.725 -125.386 210 210 210 255
427.243 -176.725 -121.471 210 210 210 255
427.243 -176.725 -117.556 210 210 210 255
427.243 -176.725 -113.641 210 210 210 255
427.243 -176.725 -109.725 210 210 210 255
427.243 -176.725 -105.808 210 210 210 255
427.243 -176.725 -101.892 210 210 210 255
427.243 -176.725 -97.9746 210 210 210 255
427.243 -176.725 -94.0573 210 210 210 255
427.243 -176.725 -90.1397 210 210 210 255
427.243 -176.725 -86.2219 210 210 210 255
427.243 -176.725 -82.3039 210 210 210 255
427.243 -176.725 -78.3857 210 210 210 255
427.243 -176.725 -74.4673 210 210 210 255
427.243 -176.725 -70.5486 210 210 210 255
427.243 -176.725 -66.6299 210 210 210 255
427.243 -176.725 -62.711 210 210 210 255
427.243 -176.725 -58.7919 210 210 210 255
427.243 -176.725 -54.8729 210 210 210 255
427.243 -176.725 -50.9537 210 210 210 255
427.243 -176.725 -47.0344 210 210 210 255
427.243 -176.725 -43.115 210 210 210 255
427.243 -176.725 -39.1956 210 210 210 255
427.243 -176.725 -35.2761 210 210 210 255
427.243 -176.725 -31.3566 210 210 210 255
427.243 -176.725 -27.4371 210 210 210 255
427.243 -176.725 -23.5176 210 210 210 255
427.243 -176.725 -19.5981 210 210 210 255
427.243 -176.725 -15.6783 210 210 210 255
427.243 -176.725 -11.7588 210 210 210 255
427.243 -176.725 -7.83911 210 210 210 255
427.243 -176.725 -3.91949 210 210 210 255
427.243 -176.725 0 210 210 210 255
423.574 -173.887 -716.829 210 210 210 255
423.574 -173.887 -714.169 210 210 210 255
423.574 -173.887 -711.491 210 210 210 255
423.574 -173.887 -708.794 210 210 210 255
423.574 -173.887 -706.078 210 210 210 255
423.574 -173.887 -703.344 210 210 210 255
423.574 -173.887 -700.592 210 210 210 255
423.574 -173.887 -697.822 210 210 210 255
423.574 -173.887 -695.034 210 210 210 255
423.574 -173.887 -692.228 210 210 210 255
423.574 -173.887 -689.405 210 210 210 255
423.574 -173.887 -686.565 210 210 210 255
423.574 -173.887 -683.707 210 210 210 255
423.574 -173.887 -680.833 210 210 210 255
423.574 -173.887 -677.942 210 210 210 255
423.574 -173.887 -675.034 210 210 210 255
423.574 -173.887 -672.11 210 210 210 255
423.574 -173.887 -669.17 210 210 210 255
423.574 -173.887 -666.214 210 210 210 255
423.574 -173.887 -663.242 210 210 210 255
423.574 -173.887 -660.254 210 210 210 255
423.574 -173.887 -657.251 210 210 210 255
423.574 -173.887 -654.232 210 210 210 255
423.574 -173.887 -651.198 210 210 210 255
423.574 -173.887 -648.15 210 210 210 255
423.574 -173.887 -645.086 210 210 210 255
423.574 -173.887 -642.008 210 210 210 255
423.574 -173.887 -638.916 210 210 210 255
423.574 -173.887 -635.809 210 210 210 255
423.574 -173.887 -632.688 210 210 210 255
423.574 -173.887 -629.553 210 210 210 255
423.574 -173.887 -626.404 210 210 210 255
423.574 -173.887 -623.242 210 210 210 255
423.574 -173.887 -620.066 210 210 210 255
423.574 -173.887 -616.877 210 210 210 255
423.574 -173.887 -613.675 210 210 210 255
423.574 -173.887 -610.459 210 210 210 255
423.574 -173.887 -607.231 210 210 210 255
423.574 -173.887 -603.99 210 210 210 255
423.574 -173.887 -600.737 210 210 210 255
423.574 -173.887 -597.471 210 210 210 255
423.574 -173.887 -594.193 210 210 210 255
423.574 -173.887 -590.903 210 210 210 255
423.574 -173.887 -587.601 210 210 210 255
423.574 -173.887 -584.287 210 210 210 255
423.574 -173.887 -580.962 210 210 210 255
423.574 -173.887 -577.625 210 210 210 255
423.574 -173.887 -574.277 210 210 210 255
423.574 -173.887 -570.917 210 210 210 255
423.574 -173.887 -567.547 210 210 210 255
423.574 -173.887 -564.166 210 210 210 255
423.574 -173.887 -560.774 210 210 210 255
423.574 -173.887 -557.371 210 210 210 255
423.574 -173.887 -553.958 210 210 210 255
423.574 -173.887 -550.535 210 210 210 255
423.574 -173.887 -547.102 210 210 210 255
423.574 -173.887 -543.658 210 210 210 255
423.574 -173.887 -540.205 210 210 210 255
423.574 -173.887 -536.742 210 210 210 255
423.574 -173.887 -533.269 210 210 210 255
423.574 -173.887 -529.787 210 210 210 255
423.574 -173.887 -526.295 210 210 210 255
423.574 -173.887 -522.795 210 210 210 255
423.574 -173.887 -519.285 210 210 210 255
423.574 -173.887 -515.766 210 210 210 255
423.574 -173.887 -512.239 210 210 210 255
423.574 -173.887 -508.702 210 210 210 255
423.574 -173.887 -505.158 210 210 210 255
423.574 -173.887 -501.604 210 210 210 255
423.574 -173.887 -498.043 210 210 210 255
423.574 -173.887 -494.473 210 210 210 255
423.574 -173.887 -490.896 210 210 210 255
423.574 -173.887 -487.31 210 210 210 255
423.574 -173.887 -483.716 210 210 210 255
423.574 -173.887 -480.115 210 210 210 255
423.574 -173.887 -476.507 210 210 210 255
423.574 -173.887 -472.891 210 210 210 255
423.574 -173.887 -469.267 210 210 210 255
423.574 -173.887 -465.637 210 210 210 255
423.574 -173.887 -461.999 210 210 210 255
423.574 -173.887 -458.354 210 210 210 255
423.574 -173.887 -454.703 210 210 210 255
423.574 -173.887 -451.045 210 210 210 255
423.574 -173.887 -447.38 210 210 210 255
423.574 -173.887 -443.708 210 210 210 255
423.574 -173.887 -440.031 210 210 210 255
423.574 -173.887 -436.347 210 210 210 255
423.574 -173.887 -432.657 210 210 210 255
423.574 -173.887 -428.96 210 210 210 255
423.574 -173.887 -425.258 210 210 210 255
423.574 -173.887 -421.55 210 210 210 255
423.574 -173.887 -417.836 210 210 210 255
423.574 -173.887 -414.117 210 210 210 255
423.574 -173.887 -410.392 210 210 210 255
423.574 -173.887 -406.661 210 210 210 255
423.574 -173.887 -402.926 210 210 210 255
423.574 -173.887 -399.185 210 210 210 255
423.574 -173.887 -395.439 210 210 210 255
423.574 -173.887 -391.688 210 210 210 255
423.574 -173.887 -387.932 210 210 210 255
423.574 -173.887 -384.171 210 210 210 255
423.574 -173.887 -380.405 210 210 210 255
423.574 -173.887 -376.635 210 210 210 255
423.574 -173.887 -372.86 210 210 210 255
423.574 -173.887 -369.081 210 210 210 255
423.574 -173.887 -365.297 210 210 210 255
423.574 -173.887 -361.509 210 210 210 255
423.574 -173.887 -357.717 210 210 210 255
423.574 -173.887 -353.921 210 210 210 255
423.574 -173.887 -350.121 210 210 210 255
423.574 -173.887 -346.317 210 210 210 255
423.574 -173.887 -342.509 210 210 210 255
423.574 -173.887 -338.697 210 210 210 255
423.574 -173.887 -334.882 210 210 210 255
423.574 -173.887 -331.063 210 210 210 255
423.574 -173.887 -327.241 210 210 210 255
423.574 -173.887 -323.415 210 210 210 255
423.574 -173.887 -319.586 210 210 210 255
423.574 -173.887 -315.753 210 210 210 255
423.574 -173.887 -311.918 210 210 210 255
423.574 -173.887 -308.079 210 210 210 255
423.574 -173.887 -304.238 210 210 210 255
423.574 -173.887 -300.393 210 210 210 255
423.574 -173.887 -296.546 210 210 210 255
423.574 -173.887 -292.695 210 210 210 255
423.574 -173.887 -288.842 210 210 210 255
423.574 -173.887 -284.987 210 210 210 255
423.574 -173.887 -281.128 210 210 210 255
423.574 -173.887 -277.268 210 210 210 255
423.574 -173.887 -273.405 210 210 210 255
423.574 -173.887 -269.539 210 210 210 255
423.574 -173.887 -265.671 210 210 210 255
423.574 -173.887 -261.801 210 210 210 255
423.574 -173.887 -257.929 210 210 210 255
423.574 -173.887 -254.055 210 210 210 255
423.574 -173.887 -250.178 210 210 210 255
423.574 -173.887 -246.3 210 210 210 255
423.574 -173.887 -242.42 210 210 210 255
423.574 -173.887 -238.538 210 210 210 255
423.574 -173.887 -234.654 210 210 210 255
423.574 -173.887 -230.768 210 210 210 255
423.574 -173.887 -226.881 210 210 210 255
423.574 -173.887 -222.992 210 210 210 255
423.574 -173.887 -219.101 210 210 210 255
423.574 -173.887 -215.209 210 210 210 255
423.574 -173.887 -211.316 210 210 210 255
423.574 -173.887 -207.421 210 210 210 255
423.574 -173.887 -203.525 210 210 210 255
423.574 -173.887 -199.627 210 210 210 255
423.574 -173.887 -195.728 210 210 210 255
423.574 -173.887 -191.828 210 210 210 255
423.574 -173.887 -187.927 210 210 210 255
423.574 -173.887 -184.025 210 210 210 255
423.574 -173.887 -180.121 210 210 210 255
423.574 -173.887 -176.217 210 210 210 255
423.574 -173.887 -172.311 210 210 210 255
423.574 -173.887 -168.405 210 210 210 255
423.574 -173.887 -164.498 210 210 210 255
423.574 -173.887 -160.59 210 210 210 255
423.574 -173.887 -156.681 210 210 210 255
423.574 -173.887 -152.771 210 210 210 255
423.574 -173.887 -148.861 210 210 210 255
423.574 -173.887 -144.95 210 210 210 255
423.574 -173.887 -141.038 210 210 210 255
423.574 -173.887 -137.125 210 210 210 255
423.574 -173.887 -133.212 210 210 210 255
423.574 -173.887 -129.299 210 210 210 255
423.574 -173.887 -125.385 210 210 210 255
423.574 -173.887 -121.47 210 210 210 255
423.574 -173.887 -117.555 210 210 210 255
423.574 -173.887 -113.64 210 210 210 255
423.574 -173.887 -109.724 210 210 210 255
423.574 -173.887 -105.808 210 210 210 255
423.574 -173.887 -101.891 210 210 210 255
423.574 -173.887 -97.9741 210 210 210 255
423.574 -173.887 -94.057 210 210 210 255
423.574 -173.887 -90.1394 210 210 210 255
423.574 -173.887 -86.2217 210 210 210 255
423.574 -173.887 -82.3036 210 210 210 255
423.574 -173.887 -78.3855 210 210 210 255
423.574 -173.887 -74.4671 210 210 210 255
423.574 -173.887 -70.5486 210 210 210 255
423.574 -173.887 -66.6299 210 210 210 255
423.574 -173.887 -62.7111 210 210 210 255
423.574 -173.887 -58.7919 210 210 210 255
423.574 -173.887 -54.8727 210 210 210 255
423.574 -173.887 -50.9536 210 210 210 255
423.574 -173.887 -47.0343 210 210 210 255
423.574 -173.887 -43.115 210 210 210 255
423.574 -173.887 -39.1957 210 210 210 255
423.574 -173.887 -35.2762 210 210 210 255
423.574 -173.887 -31.3566 210 210 210 255
423.574 -173.887 -27.4371 210 210 210 255
423.574 -173.887 -23.5175 210 210 210 255
423.574 -173.887 -19.598 210 210 210 255
423.574 -173.887 -15.6784 210 210 210 255
423.574 -173.887 -11.7587 210 210 210 255
423.574 -173.887 -7.83923 210 210 210 255
423.574 -173.887 -3.91956 210 210 210 255
423.574 -173.887 0 210 210 210 255
419.976 -171.048 -715.416 210 210 210 255
419.976 -171.048 -712.785 210 210 210 255
419.976 -171.048 -710.134 210 210 210 255
419.976 -171.048 -707.464 210 210 210 255
419.976 -171.048 -704.776 210 210 210 255
419.976 -171.048 -702.068 210 210 210 255
419.976 -171.048 -699.342 210 210 210 255
419.976 -171.048 -696.598 210 210 210 255
419.976 -171.048 -693.835 210 210 210 255
419.976 -171.048 -691.054 210 210 210 255
419.976 -171.048 -688.255 210 210 210 255
419.976 -171.048 -685.439 210 210 210 255
419.976 -171.048 -682.606 210 210 210 255
419.976 -171.048 -679.755 210 210 210 255
419.976 -171.048 -676.886 210 210 210 255
419.976 -171.048 -674.001 210 210 210 255
419.976 -171.048 -671.1 210 210 210 255
419.976 -171.048 -668.181 210 210 210 255
419.976 -171.048 -665.247 210 210 210 255
419.976 -171.048 -662.296 210 210 210 255
419.976 -171.048 -659.329 210 210 210 255
419.976 -171.048 -656.346 210 210 210 255
419.976 -171.048 -653.348 210 210 210 255
419.976 -171.048 -650.334 210 210 210 255
419.976 -171.048 -647.305 210 210 210 255
419.976 -171.048 -644.261 210 210 210 255
419.976 -171.048 -641.201 210 210 210 255
419.976 -171.048 -638.127 210 210 210 255
419.976 -171.048 -635.039 210 210 210 255
419.976 -171.048 -631.936 210 210 210 255
419.976 -171.048 -628.818 210 210 210 255
419.976 -171.048 -625.687 210 210 210 255
419.976 -171.048 -622.541 210 210 210 255
419.976 -171.048 -619.382 210 210 210 255
419.976 -171.048 -616.209 210 210 210 255
419.976 -171.048 -613.023 210 210 210 255
419.976 -171.048 -609.823 210 210 210 255
419.976 -171.048 -606.611 210 210 210 255
419.976 -171.048 -603.385 210 210 210 255
419.976 -171.048 -600.146 210 210 210 255
419.976 -171.048 -596.895 210 210 210 255
419.976 -171.048 -593.632 210 210 210 255
419.976 -171.048 -590.356 210 210 210 255
419.976 -171.048 -587.067 210 210 210 255
419.976 -171.048 -583.767 210 210 210 255
419.976 -171.048 -580.455 210 210 210 255
419.976 -171.048 -577.131 210 210 210 255
419.976 -171.048 -573.796 210 210 210 255
419.976 -171.048 -570.449 210 210 210 255
419.976 -171.048 -567.091 210 210 210 255
419.976 -171.048 -563.722 210 210 210 255
419.976 -171.048 -560.342 210 210 210 255
419.976 -171.048 -556.951 210 210 210 255
419.976 -171.048 -553.549 210 210 210 255
419.976 -171.048 -550.137 210 210 210 255
419.976 -171.048 -546.714 210 210 210 255
419.976 -171.048 -543.282 210 210 210 255
419.976 -171.048 -539.839 210 210 210 255
419.976 -171.048 -536.386 210 210 210 255
419.976 -171.048 -532.923 210 210 210 255
419.976 -171.048 -529.451 210 210 210 255
419.976 -171.048 -525.969 210 210 210 255
419.976 -171.048 -522.477 210 210 210 255
419.976 -171.048 -518.977 210 210 210 255
419.976 -171.048 -515.467 210 210 210 255
419.976 -171.048 -511.948 210 210 210 255
419.976 -171.048 -508.42 210 210 210 255
419.976 -171.048 -504.884 210 210 210 255
419.976 -171.048 -501.339 210 210 210 255
419.976 -171.048 -497.786 210 210 210 255
419.976 -171.048 -494.224 210 210 210 255
419.976 -171.048 -490.654 210 210 210 255
419.976 -171.048 -487.076 210 210 210 255
419.976 -171.048 -483.489 210 210 210 255
419.976 -171.048 -479.895 210 210 210 255
419.976 -171.048 -476.294 210 210 210 255
419.976 -171.048 -472.684 210 210 210 255
419.976 -171.048 -469.068 210 210 210 255
419.976 -171.048 -465.444 210 210 210 255
419.976 -171.048 -461.812 210 210 210 255
419.976 -171.048 -458.174 210 210 210 255
419.976 -171.048 -454.528 210 210 210 255
419.976 -171.048 -450.876 210 210 210 255
419.976 -171.048 -447.217 210 210 210 255
419.976 -171.048 -443.551 210 210 210 255
419.976 -171.048 -439.879 210 210 210 255
419.976 -171.048 -436.2 210 210 210 255
419.976 -171.048 -432.515 210 210 210 255
419.976 -171.048 -428.823 210 210 210 255
419.976 -171.048 -425.126 210 210 210 255
419.976 -171.048 -421.423 210 210 210 255
419.976 -171.048 -417.714 210 210 210 255
419.976 -171.048 -413.999 210 210 210 255
419.976 -171.048 -410.278 210 210 210 255
419.976 -171.048 -406.552 210 210 210 255
419.976 -171.048 -402.82 210 210 210 255
419.976 -171.048 -399.083 210 210 210 255
419.976 -171.048 -395.341 210 210 210 255
419.976 -171.048 -391.594 210 210 210 255
419.976 -171.048 -387.842 210 210 210 255
419.976 -171.048 -384.084 210 210 210 255
419.976 -171.048 -380.322 210 210 210 255
419.976 -171.048 -376.555 210 210 210 255
419.976 -171.048 -372.784 210 210 210 255
419.976 -171.048 -369.007 210 210 210 255
419.976 -171.048 -365.227 210 210 210 255
419.976 -171.048 -361.442 210 210 210 255
419.976 -171.048 -357.653 210 210 210 255
419.976 -171.048 -353.859 210 210 210 255
419.976 -171.048 -350.062 210 210 210 255
419.976 -171.048 -346.26 210 210 210 255
419.976 -171.048 -342.455 210 210 210 255
419.976 -171.048 -338.646 210 210 210 255
419.976 -171.048 -334.833 210 210 210 255
419.976 -171.048 -331.016 210 210 210 255
419.976 -171.048 -327.196 210 210 210 255
419.976 -171.048 -323.372 210 210 210 255
419.976 -171.048 -319.545 210 210 210 255
419.976 -171.048 -315.715 210 210 210 255
419.976 -171.048 -311.881 210 210 210 255
419.976 -171.048 -308.044 210 210 210 255
419.976 -171.048 -304.204 210 210 210 255
419.976 -171.048 -300.361 210 210 210 255
419.976 -171.048 -296.516 210 210 210 255
419.976 -171.048 -292.667 210 210 210 255
419.976 -171.048 -288.815 210 210 210 255
419.976 -171.048 -284.961 210 210 210 255
419.976 -171.048 -281.104 210 210 210 255
419.976 -171.048 -277.245 210 210 210 255
419.976 -171.048 -273.383 210 210 210 255
419.976 -171.048 -269.519 210 210 210 255
419.976 -171.048 -265.652 210 210 210 255
419.976 -171.048 -261.783 210 210 210 255
419.976 -171.048 -257.912 210 210 210 255
419.976 -171.048 -254.039 210 210 210 255
419.976 -171.048 -250.163 210 210 210 255
419.976 -171.048 -246.286 210 210 210 255
419.976 -171.048 -242.407 210 210 210 255
419.976 -171.048 -238.525 210 210 210 255
419.976 -171.048 -234.642 210 210 210 255
419.976 -171.048 -230.757 210 210 210 255
419.976 -171.048 -226.87 210 210 210 255
419.976 -171.048 -222.982 210 210 210 255
419.976 -171.048 -219.093 210 210 210 255
419.976 -171.048 -215.201 210 210 210 255
419.976 -171.048 -211.308 210 210 210 255
419.976 -171.048 -207.414 210 210 210 255
419.976 -171.048 -203.518 210 210 210 255
419.976 -171.048 -199.621 210 210 210 255
419.976 -171.048 -195.722 210 210 210 255
419.976 -171.048 -191.823 210 210 210 255
419.976 -171.048 -187.922 210 210 210 255
419.976 -171.048 -184.02 210 210 210 255
419.976 -171.048 -180.117 210 210 210 255
419.976 -171.048 -176.213 210 210 210 255
419.976 -171.048 -172.308 210 210 210 255
419.976 -171.048 -168.402 210 210 210 255
419.976 -171.048 -164.495 210 210 210 255
419.976 -171.048 -160.587 210 210 210 255
419.976 -171.048 -156.679 210 210 210 255
419.976 -171.048 -152.769 210 210 210 255
419.976 -171.048 -148.859 210 210 210 255
419.976 -171.048 -144.948 210 210 210 255
419.976 -171.048 -141.036 210 210 210 255
419.976 -171.048 -137.124 210 210 210 255
419.976 -171.048 -133.211 210 210 210 255
419.976 -171.048 -129.298 210 210 210 255
419.976 -171.048 -125.384 210 210 210 255
419.976 -171.048 -121.47 210 210 210 255
419.976 -171.048 -117.555 210 210 210 255
419.976 -171.048 -113.639 210 210 210 255
419.976 -171.048 -109.723 210 210 210 255
419.976 -171.048 -105.807 210 210 210 255
419.976 -171.048 -101.891 210 210 210 255
419.976 -171.048 -97.9738 210 210 210 255
419.976 -171.048 -94.0568 210 210 210 255
419.976 -171.048 -90.1392 210 210 210 255
419.976 -171.048 -86.2215 210 210 210 255
419.976 -171.048 -82.3036 210 210 210 255
419.976 -171.048 -78.3852 210 210 210 255
419.976 -171.048 -74.4669 210 210 210 255
419.976 -171.048 -70.5485 210 210 210 255
419.976 -171.048 -66.6297 210 210 210 255
419.976 -171.048 -62.7108 210 210 210 255
419.976 -171.048 -58.7919 210 210 210 255
419.976 -171.048 -54.8728 210 210 210 255
419.976 -171.048 -50.9536 210 210 210 255
419.976 -171.048 -47.0344 210 210 210 255
419.976 -171.048 -43.115 210 210 210 255
419.976 -171.048 -39.1956 210 210 210 255
419.976 -171.048 -35.2761 210 210 210 255
419.976 -171.048 -31.3567 210 210 210 255
419.976 -171.048 -27.4371 210 210 210 255
419.976 -171.048 -23.5175 210 210 210 255
419.976 -171.048 -19.598 210 210 210 255
419.976 -171.048 -15.6783 210 210 210 255
419.976 -171.048 -11.7589 210 210 210 255
419.976 -171.048 -7.83917 210 210 210 255
419.976 -171.048 -3.91956 210 210 210 255
419.976 -171.048 0 210 210 210 255
416.449 -168.211 -714.1 210 210 210 255
416.449 -168.211 -711.495 210 210 210 255
416.449 -168.211 -708.87 210 210 210 255
416.449 -168.211 -706.226 210 210 210 255
416.449 -168.211 -703.562 210 210 210 255
416.449 -168.211 -700.88 210 210 210 255
416.449 -168.211 -698.178 210 210 210 255
416.449 -168.211 -695.457 210 210 210 255
416.449 -168.211 -692.718 210 210 210 255
416.449 -168.211 -689.961 210 210 210 255
416.449 -168.211 -687.185 210 210 210 255
416.449 -168.211 -684.391 210 210 210 255
416.449 -168.211 -681.579 210 210 210 255
416.449 -168.211 -678.75 210 210 210 255
416.449 -168.211 -675.904 210 210 210 255
416.449 -168.211 -673.04 210 210 210 255
416.449 -168.211 -670.159 210 210 210 255
416.449 -168.211 -667.261 210 210 210 255
416.449 -168.211 -664.346 210 210 210 255
416.449 -168.211 -661.415 210 210 210 255
416.449 -168.211 -658.468 210 210 210 255
416.449 -168.211 -655.504 210 210 210 255
416.449 -168.211 -652.524 210 210 210 255
416.449 -168.211 -649.529 210 210 210 255
416.449 -168.211 -646.518 210 210 210 255
416.449 -168.211 -643.491 210 210 210 255
416.449 -168.211 -640.45 210 210 210 255
416.449 -168.211 -637.393 210 210 210 255
416.449 -168.211 -634.321 210 210 210 255
416.449 -168.211 -631.235 210 210 210 255
416.449 -168.211 -628.134 210 210 210 255
416.449 -168.211 -625.018 210 210 210 255
416.449 -168.211 -621.889 210 210 210 255
416.449 -168.211 -618.745 210 210 210 255
416.449 -168.211 -615.587 210 210 210 255
416.449 -168.211 -612.416 210 210 210 255
416.449 -168.211 -609.231 210 210 210 255
416.449 -168.211 -606.033 210 210 210 255
416.449 -168.211 -602.821 210 210 210 255
416.449 -168.211 -599.596 210 210 210 255
416.449 -168.211 -596.359 210 210 210 255
416.449 -168.211 -593.109 210 210 210 255
416.449 -168.211 -589.846 210 210 210 255
416.449 -168.211 -586.57 210 210 210 255
416.449 -168.211 -583.283 210 210 210 255
416.449 -168.211 -579.983 210 210 210 255
416.449 -168.211 -576.671 210 210 210 255
416.449 -168.211 -573.348 210 210 210 255
416.449 -168.211 -570.013 210 210 210 255
416.449 -168.211 -566.666 210 210 210 255
416.449 -168.211 -563.308 210 210 210 255
416.449 -168.211 -559.939 210 210 210 255
416.449 -168.211 -556.559 210 210 210 255
416.449 -168.211 -553.168 210 210 210 255
416.449 -168.211 -549.766 210 210 210 255
416.449 -168.211 -546.354 210 210 210 255
416.449 -168.211 -542.931 210 210 210 255
416.449 -168.211 -539.497 210 210 210 255
416.449 -168.211 -536.054 210 210 210 255
416.449 -168.211 -532.601 210 210 210 255
416.449 -168.211 -529.137 210 210 210 255
416.449 -168.211 -525.664 210 210 210 255
416.449 -168.211 -522.182 210 210 210 255
416.449 -168.211 -518.69 210 210 210 255
416.449 -168.211 -515.188 210 210 210 255
416.449 -168.211 -511.678 210 210 210 255
416.449 -168.211 -508.158 210 210 210 255
416.449 -168.211 -504.629 210 210 210 255
416.449 -168.211 -501.092 210 210 210 255
416.449 -168.211 -497.546 210 210 210 255
416.449 -168.211 -493.991 210 210 210 255
416.449 -168.211 -490.428 210 210 210 255
416.449 -168.211 -486.857 210 210 210 255
416.449 -168.211 -483.278 210 210 210 255
416.449 -168.211 -479.691 210 210 210 255
416.449 -168.211 -476.095 210 210 210 255
416.449 -168.211 -472.492 210 210 210 255
416.449 -168.211 -468.882 210 210 210 255
416.449 -168.211 -465.264 210 210 210 255
416.449 -168.211 -461.638 210 210 210 255
416.449 -168.211 -458.005 210 210 210 255
416.449 -168.211 -454.366 210 210 210 255
416.449 -168.211 -450.719 210 210 210 255
416.449 -168.211 -447.065 210 210 210 255
416.449 -168.211 -443.404 210 210 210 255
416.449 -168.211 -439.737 210 210 210 255
416.449 -168.211 -436.063 210 210 210 255
416.449 -168.211 -432.383 210 210 210 255
416.449 -168.211 -428.696 210 210 210 255
416.449 -168.211 -425.003 210 210 210 255
416.449 -168.211 -421.305 210 210 210 255
416.449 -168.211 -417.599 210 210 210 255
416.449 -168.211 -413.889 210 210 210 255
416.449 -168.211 -410.172 210 210 210 255
416.449 -168.211 -406.45 210 210 210 255
416.449 -168.211 -402.722 210 210 210 255
416.449 -168.211 -398.989 210 210 210 255
416.449 -168.211 -395.25 210 210 210 255
416.449 -168.211 -391.507 210 210 210 255
416.449 -168.211 -387.758 210 210 210 255
416.449 -168.211 -384.003 210 210 210 255
416.449 -168.211 -380.245 210 210 210 255
416.449 -168.211 -376.481 210 210 210 255
416.449 -168.211 -372.712 210 210 210 255
416.449 -168.211 -368.939 210 210 210 255
416.449 -168.211 -365.161 210 210 210 255
416.449 -168.211 -361.379 210 210 210 255
416.449 -168.211 -357.593 210 210 210 255
416.449 -168.211 -353.802 210 210 210 255
416.449 -168.211 -350.007 210 210 210 255
416.449 -168.211 -346.208 210 210 210 255
416.449 -168.211 -342.405 210 210 210 255
416.449 -168.211 -338.598 210 210 210 255
416.449 -168.211 -334.787 210 210 210 255
416.449 -168.211 -330.972 210 210 210 255
416.449 -168.211 -327.154 210 210 210 255
416.449 -168.211 -323.332 210 210 210 255
416.449 -168.211 -319.507 210 210 210 255
416.449 -168.211 -315.679 210 210 210 255
416.449 -168.211 -311.846 210 210 210 255
416.449 -168.211 -308.011 210 210 210 255
416.449 -168.211 -304.173 210 210 210 255
416.449 -168.211 -300.332 210 210 210 255
416.449 -168.211 -296.488 210 210 210 255
416.449 -168.211 -292.64 210 210 210 255
416.449 -168.211 -288.79 210 210 210 255
416.449 -168.211 -284.937 210 210 210 255
416.449 -168.211 -281.082 210 210 210 255
416.449 -168.211 -277.224 210 210 210 255
416.449 -168.211 -273.363 210 210 210 255
416.449 -168.211 -269.5 210 210 210 255
416.449 -168.211 -265.634 210 210 210 255
416.449 -168.211 -261.766 210 210 210 255
416.449 -168.211 -257.896 210 210 210 255
416.449 -168.211 -254.024 210 210 210 255
416.449 -168.211 -250.149 210 210 210 255
416.449 -168.211 -246.273 210 210 210 255
416.449 -168.211 -242.394 210 210 210 255
416.449 -168.211 -238.514 210 210 210 255
416.449 -168.211 -234.631 210 210 210 255
416.449 -168.211 -230.747 210 210 210 255
416.449 -168.211 -226.861 210 210 210 255
416.449 -168.211 -222.973 210 210 210 255
416.449 -168.211 -219.084 210 210 210 255
416.449 -168.211 -215.193 210 210 210 255
416.449 -168.211 -211.301 210 210 210 255
416.449 -168.211 -207.407 210 210 210 255
416.449 -168.211 -203.512 210 210 210 255
416.449 -168.211 -199.615 210 210 210 255
416.449 -168.211 -195.717 210 210 210 255
416.449 -168.211 -191.818 210 210 210 255
416.449 -168.211 -187.918 210 210 210 255
416.449 -168.211 -184.016 210 210 210 255
416.449 -168.211 -180.113 210 210 210 255
416.449 -168.211 -176.209 210 210 210 255
416.449 -168.211 -172.305 210 210 210 255
416.449 -168.211 -168.399 210 210 210 255
416.449 -168.211 -164.492 210 210 210 255
416.449 -168.211 -160.585 210 210 210 255
416.449 -168.211 -156.676 210 210 210 255
416.449 -168.211 -152.767 210 210 210 255
416.449 -168.211 -148.857 210 210 210 255
416.449 -168.211 -144.946 210 210 210 255
416.449 -168.211 -141.035 210 210 210 255
416.449 -168.211 -137.123 210 210 210 255
416.449 -168.211 -133.21 210 210 210 255
416.449 -168.211 -129.297 210 210 210 255
416.449 -168.211 -125.383 210 210 210 255
416.449 -168.211 -121.469 210 210 210 255
416.449 -168.211 -117.554 210 210 210 255
416.449 -168.211 -113.639 210 210 210 255
416.449 -168.211 -109.723 210 210 210 255
416.449 -168.211 -105.807 210 210 210 255
416.449 -168.211 -101.89 210 210 210 255
416.449 -168.211 -97.9736 210 210 210 255
416.449 -168.211 -94.0565 210 210 210 255
416.449 -168.211 -90.139 210 210 210 255
416.449 -168.211 -86.2213 210 210 210 255
416.449 -168.211 -82.3035 210 210 210 255
416.449 -168.211 -78.3852 210 210 210 255
416.449 -168.211 -74.4668 210 210 210 255
416.449 -168.211 -70.5485 210 210 210 255
416.449 -168.211 -66.6298 210 210 210 255
416.449 -168.211 -62.7109 210 210 210 255
416.449 -168.211 -58.7919 210 210 210 255
416.449 -168.211 -54.8727 210 210 210 255
416.449 -168.211 -50.9537 210 210 210 255
416.449 -168.211 -47.0343 210 210 210 255
416.449 -168.211 -43.1149 210 210 210 255
416.449 -168.211 -39.1955 210 210 210 255
416.449 -168.211 -35.2763 210 210 210 255
416.449 -168.211 -31.3567 210 210 210 255
416.449 -168.211 -27.4371 210 210 210 255
416.449 -168.211 -23.5175 210 210 210 255
416.449 -168.211 -19.5979 210 210 210 255
416.449 -168.211 -15.6783 210 210 210 255
416.449 -168.211 -11.7588 210 210 210 255
416.449 -168.211 -7.83917 210 210 210 255
416.449 -168.211 -3.91962 210 210 210 255
416.449 -168.211 6.10352e-05 210 210 210 255
412.993 -165.373 -712.878 210 210 210 255
412.993 -165.373 -710.298 210 210 210 255
412.993 -165.373 -707.697 210 210 210 255
412.993 -165.373 -705.076 210 210 210 255
412.993 -165.373 -702.436 210 210 210 255
412.993 -165.373 -699.776 210 210 210 255
412.993 -165.373 -697.097 210 210 210 255
412.993 -165.373 -694.399 210 210 210 255
412.993 -165.373 -691.681 210 210 210 255
412.993 -165.373 -688.945 210 210 210 255
412.993 -165.373 -686.191 210 210 210 255
412.993 -165.373 -683.418 210 210 210 255
412.993 -165.373 -680.627 210 210 210 255
412.993 -165.373 -677.818 210 210 210 255
412.993 -165.373 -674.991 210 210 210 255
412.993 -165.373 -672.147 210 210 210 255
412.993 -165.373 -669.285 210 210 210 255
412.993 -165.373 -666.406 210 210 210 255
412.993 -165.373 -663.51 210 210 210 255
412.993 -165.373 -660.597 210 210 210 255
412.993 -165.373 -657.668 210 210 210 255
412.993 -165.373 -654.722 210 210 210 255
412.993 -165.373 -651.76 210 210 210 255
412.993 -165.373 -648.781 210 210 210 255
412.993 -165.373 -645.787 210 210 210 255
412.993 -165.373 -642.777 210 210 210 255
412.993 -165.373 -639.752 210 210 210 255
412.993 -165.373 -636.711 210 210 210 255
412.993 -165.373 -633.655 210 210 210 255
412.993 -165.373 -630.584 210 210 210 255
412.993 -165.373 -627.498 210 210 210 255
412.993 -165.373 -624.398 210 210 210 255
412.993 -165.373 -621.283 210 210 210 255
412.993 -165.373 -618.153 210 210 210 255
412.993 -165.373 -615.01 210 210 210 255
412.993 -165.373 -611.852 210 210 210 255
412.993 -165.373 -608.681 210 210 210 255
412.993 -165.373 -605.496 210 210 210 255
412.993 -165.373 -602.298 210 210 210 255
412.993 -165.373 -599.086 210 210 210 255
412.993 -165.373 -595.861 210 210 210 255
412.993 -165.373 -592.623 210 210 210 255
412.993 -165.373 -589.372 210 210 210 255
412.993 -165.373 -586.109 210 210 210 255
412.993 -165.373 -582.833 210 210 210 255
412.993 -165.373 -579.545 210 210 210 255
412.993 -165.373 -576.245 210 210 210 255
412.993 -165.373 -572.932 210 210 210 255
412.993 -165.373 -569.608 210 210 210 255
412.993 -165.373 -566.272 210 210 210 255
412.993 -165.373 -562.924 210 210 210 255
412.993 -165.373 -559.565 210 210 210 255
412.993 -165.373 -556.195 210 210 210 255
412.993 -165.373 -552.814 210 210 210 255
412.993 -165.373 -549.422 210 210 210 255
412.993 -165.373 -546.019 210 210 210 255
412.993 -165.373 -542.605 210 210 210 255
412.993 -165.373 -539.181 210 210 210 255
412.993 -165.373 -535.746 210 210 210 255
412.993 -165.373 -532.301 210 210 210 255
412.993 -165.373 -528.847 210 210 210 255
412.993 -165.373 -525.382 210 210 210 255
412.993 -165.373 -521.907 210 210 210 255
412.993 -165.373 -518.423 210 210 210 255
412.993 -165.373 -514.93 210 210 210 255
412.993 -165.373 -511.426 210 210 210 255
412.993 -165.373 -507.914 210 210 210 255
412.993 -165.373 -504.393 210 210 210 255
412.993 -165.373 -500.862 210 210 210 255
412.993 -165.373 -497.323 210 210 210 255
412.993 -165.373 -493.776 210 210 210 255
412.993 -165.373 -490.219 210 210 210 255
412.993 -165.373 -486.655 210 210 210 255
412.993 -165.373 -483.082 210 210 210 255
412.993 -165.373 -479.5 210 210 210 255
412.993 -165.373 -475.911 210 210 210 255
412.993 -165.373 -472.314 210 210 210 255
412.993 -165.373 -468.709 210 210 210 255
412.993 -165.373 -465.097 210 210 210 255
412.993 -165.373 -461.477 210 210 210 255
412.993 -165.373 -457.849 210 210 210 255
412.993 -165.373 -454.214 210 210 210 255
412.993 -165.373 -450.573 210 210 210 255
412.993 -165.373 -446.924 210 210 210 255
412.993 -165.373 -443.268 210 210 210 255
412.993 -165.373 -439.605 210 210 210 255
412.993 -165.373 -435.936 210 210 210 255
412.993 -165.373 -432.26 210 210 210 255
412.993 -165.373 -428.578 210 210 210 255
412.993 -165.373 -424.889 210 210 210 255
412.993 -165.373 -421.194 210 210 210 255
412.993 -165.373 -417.494 210 210 210 255
412.993 -165.373 -413.787 210 210 210 255
412.993 -165.373 -410.074 210 210 210 255
412.993 -165.373 -406.355 210 210 210 255
412.993 -165.373 -402.631 210 210 210 255
412.993 -165.373 -398.901 210 210 210 255
412.993 -165.373 -395.166 210 210 210 255
412.993 -165.373 -391.426 210 210 210 255
412.993 -165.373 -387.68 210 210 210 255
412.993 -165.373 -383.929 210 210 210 255
412.993 -165.373 -380.173 210 210 210 255
412.993 -165.373 -376.412 210 210 210 255
412.993 -165.373 -372.646 210 210 210 255
412.993 -165.373 -368.876 210 210 210 255
412.993 -165.373 -365.101 210 210 210 255
412.993 -165.373 -361.321 210 210 210 255
412.993 -165.373 -357.537 210 210 210 255
412.993 -165.373 -353.748 210 210 210 255
412.993 -165.373 -349.956 210 210 210 255
412.993 -165.373 -346.159 210 210 210 255
412.993 -165.373 -342.358 210 210 210 255
412.993 -165.373 -338.553 210 210 210 255
412.993 -165.373 -334.744 210 210 210 255
412.993 -165.373 -330.931 210 210 210 255
412.993 -165.373 -327.115 210 210 210 255
412.993 -165.373 -323.295 210 210 210 255
412.993 -165.373 -319.472 210 210 210 255
412.993 -165.373 -315.645 210 210 210 255
412.993 -165.373 -311.815 210 210 210 255
412.993 -165.373 -307.981 210 210 210 255
412.993 -165.373 -304.144 210 210 210 255
412.993 -165.373 -300.304 210 210 210 255
412.993 -165.373 -296.462 210 210 210 255
412.993 -165.373 -292.616 210 210 210 255
412.993 -165.373 -288.767 210 210 210 255
412.993 -165.373 -284.915 210 210 210 255
412.993 -165.373 -281.061 210 210 210 255
412.993 -165.373 -277.204 210 210 210 255
412.993 -165.373 -273.344 210 210 210 255
412.993 -165.373 -269.482 210 210 210 255
412.993 -165.373 -265.617 210 210 210 255
412.993 -165.373 -261.751 210 210 210 255
412.993 -165.373 -257.881 210 210 210 255
412.993 -165.373 -254.01 210 210 210 255
412.993 -165.373 -250.136 210 210 210 255
412.993 -165.373 -246.26 210 210 210 255
412.993 -165.373 -242.383 210 210 210 255
412.993 -165.373 -238.503 210 210 210 255
412.993 -165.373 -234.621 210 210 210 255
412.993 -165.373 -230.738 210 210 210 255
412.993 -165.373 -226.852 210 210 210 255
412.993 -165.373 -222.965 210 210 210 255
412.993 -165.373 -219.077 210 210 210 255
412.993 -165.373 -215.186 210 210 210 255
412.993 -165.373 -211.294 210 210 210 255
412.993 -165.373 -207.401 210 210 210 255
412.993 -165.373 -203.506 210 210 210 255
412.993 -165.373 -199.61 210 210 210 255
412.993 -165.373 -195.712 210 210 210 255
412.993 -165.373 -191.814 210 210 210 255
412.993 -165.373 -187.914 210 210 210 255
412.993 -165.373 -184.012 210 210 210 255
412.993 -165.373 -180.11 210 210 210 255
412.993 -165.373 -176.206 210 210 210 255
412.993 -165.373 -172.302 210 210 210 255
412.993 -165.373 -168.396 210 210 210 255
412.993 -165.373 -164.49 210 210 210 255
412.993 -165.373 -160.583 210 210 210 255
412.993 -165.373 -156.674 210 210 210 255
412.993 -165.373 -152.765 210 210 210 255
412.993 -165.373 -148.856 210 210 210 255
412.993 -165.373 -144.945 210 210 210 255
412.993 -165.373 -141.034 210 210 210 255
412.993 -165.373 -137.122 210 210 210 255
412.993 -165.373 -133.209 210 210 210 255
412.993 -165.373 -129.296 210 210 210 255
412.993 -165.373 -125.382 210 210 210 255
412.993 -165.373 -121.468 210 210 210 255
412.993 -165.373 -117.553 210 210 210 255
412.993 -165.373 -113.638 210 210 210 255
412.993 -165.373 -109.722 210 210 210 255
412.993 -165.373 -105.806 210 210 210 255
412.993 -165.373 -101.89 210 210 210 255
412.993 -165.373 -97.9733 210 210 210 255
412.993 -165.373 -94.0562 210 210 210 255
412.993 -165.373 -90.1388 210 210 210 255
412.993 -165.373 -86.2213 210 210 210 255
412.993 -165.373 -82.3032 210 210 210 255
412.993 -165.373 -78.3851 210 210 210 255
412.993 -165.373 -74.4669 210 210 210 255
412.993 -165.373 -70.5482 210 210 210 255
412.993 -165.373 -66.6296 210 210 210 255
412.993 -165.373 -62.7108 210 210 210 255
412.993 -165.373 -58.7919 210 210 210 255
412.993 -165.373 -54.8727 210 210 210 255
412.993 -165.373 -50.9536 210 210 210 255
412.993 -165.373 -47.0343 210 210 210 255
412.993 -165.373 -43.115 210 210 210 255
412.993 -165.373 -39.1956 210 210 210 255
412.993 -165.373 -35.276 210 210 210 255
412.993 -165.373 -31.3566 210 210 210 255
412.993 -165.373 -27.4371 210 210 210 255
412.993 -165.373 -23.5176 210 210 210 255
412.993 -165.373 -19.5978 210 210 210 255
412.993 -165.373 -15.6785 210 210 210 255
412.993 -165.373 -11.7588 210 210 210 255
412.993 -165.373 -7.83923 210 210 210 255
412.993 -165.373 -3.91968 210 210 210 255
412.993 -165.373 -6.10352e-05 210 210 210 255
409.605 -162.537 -711.749 210 210 210 255
409.605 -162.537 -709.191 210 210 210 255
409.605 -162.537 -706.612 210 210 210 255
409.605 -162.537 -704.013 210 210 210 255
409.605 -162.537 -701.395 210 210 210 255
409.605 -162.537 -698.756 210 210 210 255
409.605 -162.537 -696.098 210 210 210 255
409.605 -162.537 -693.42 210 210 210 255
409.605 -162.537 -690.723 210 210 210 255
409.605 -162.537 -688.007 210 210 210 255
409.605 -162.537 -685.272 210 210 210 255
409.605 -162.537 -682.518 210 210 210 255
409.605 -162.537 -679.746 210 210 210 255
409.605 -162.537 -676.956 210 210 210 255
409.605 -162.537 -674.147 210 210 210 255
409.605 -162.537 -671.321 210 210 210 255
409.605 -162.537 -668.477 210 210 210 255
409.605 -162.537 -665.616 210 210 210 255
409.605 -162.537 -662.737 210 210 210 255
409.605 -162.537 -659.841 210 210 210 255
409.605 -162.537 -656.928 210 210 210 255
409.605 -162.537 -653.999 210 210 210 255
409.605 -162.537 -651.053 210 210 210 255
409.605 -162.537 -648.09 210 210 210 255
409.605 -162.537 -645.112 210 210 210 255
409.605 -162.537 -642.117 210 210 210 255
409.605 -162.537 -639.107 210 210 210 255
409.605 -162.537 -636.081 210 210 210 255
409.605 -162.537 -633.039 210 210 210 255
409.605 -162.537 -629.983 210 210 210 255
409.605 -162.537 -626.911 210 210 210 255
409.605 -162.537 -623.824 210 210 210 255
409.605 -162.537 -620.722 210 210 210 255
409.605 -162.537 -617.606 210 210 210 255
409.605 -162.537 -614.476 210 210 210 255
409.605 -162.537 -611.331 210 210 210 255
409.605 -162.537 -608.172 210 210 210 255
409.605 -162.537 -605 210 210 210 255
409.605 -162.537 -601.814 210 210 210 255
409.605 -162.537 -598.614 210 210 210 255
409.605 -162.537 -595.401 210 210 210 255
409.605 -162.537 -592.174 210 210 210 255
409.605 -162.537 -588.935 210 210 210 255
409.605 -162.537 -585.682 210 210 210 255
409.605 -162.537 -582.417 210 210 210 255
409.605 -162.537 -579.14 210 210 210 255
409.605 -162.537 -575.85 210 210 210 255
409.605 -162.537 -572.548 210 210 210 255
409.605 -162.537 -569.233 210 210 210 255
409.605 -162.537 -565.907 210 210 210 255
409.605 -162.537 -562.569 210 210 210 255
409.605 -162.537 -559.22 210 210 210 255
409.605 -162.537 -555.859 210 210 210 255
409.605 -162.537 -552.487 210 210 210 255
409.605 -162.537 -549.103 210 210 210 255
409.605 -162.537 -545.709 210 210 210 255
409.605 -162.537 -542.304 210 210 210 255
409.605 -162.537 -538.888 210 210 210 255
409.605 -162.537 -535.461 210 210 210 255
409.605 -162.537 -532.025 210 210 210 255
409.605 -162.537 -528.578 210 210 210 255
409.605 -162.537 -525.121 210 210 210 255
409.605 -162.537 -521.654 210 210 210 255
409.605 -162.537 -518.177 210 210 210 255
409.605 -162.537 -514.69 210 210 210 255
409.605 -162.537 -511.194 210 210 210 255
409.605 -162.537 -507.689 210 210 210 255
409.605 -162.537 -504.174 210 210 210 255
409.605 -162.537 -500.65 210 210 210 255
409.605 -162.537 -497.118 210 210 210 255
409.605 -162.537 -493.576 210 210 210 255
409.605 -162.537 -490.026 210 210 210 255
409.605 -162.537 -486.467 210 210 210 255
409.605 -162.537 -482.9 210 210 210 255
409.605 -162.537 -479.325 210 210 210 255
409.605 -162.537 -475.741 210 210 210 255
409.605 -162.537 -472.149 210 210 210 255
409.605 -162.537 -468.55 210 210 210 255
409.605 -162.537 -464.942 210 210 210 255
409.605 -162.537 -461.327 210 210 210 255
409.605 -162.537 -457.705 210 210 210 255
409.605 -162.537 -454.075 210 210 210 255
409.605 -162.537 -450.438 210 210 210 255
409.605 -162.537 -446.793 210 210 210 255
409.605 -162.537 -443.142 210 210 210 255
409.605 -162.537 -439.484 210 210 210 255
409.605 -162.537 -435.818 210 210 210 255
409.605 -162.537 -432.147 210 210 210 255
409.605 -162.537 -428.469 210 210 210 255
409.605 -162.537 -424.784 210 210 210 255
409.605 -162.537 -421.093 210 210 210 255
409.605 -162.537 -417.396 210 210 210 255
409.605 -162.537 -413.692 210 210 210 255
409.605 -162.537 -409.983 210 210 210 255
409.605 -162.537 -406.268 210 210 210 255
409.605 -162.537 -402.547 210 210 210 255
409.605 -162.537 -398.82 210 210 210 255
409.605 -162.537 -395.088 210 210 210 255
409.605 -162.537 -391.351 210 210 210 255
409.605 -162.537 -387.608 210 210 210 255
409.605 -162.537 -383.86 210 210 210 255
409.605 -162.537 -380.106 210 210 210 255
409.605 -162.537 -376.348 210 210 210 255
409.605 -162.537 -372.585 210 210 210 255
409.605 -162.537 -368.817 210 210 210 255
409.605 -162.537 -365.044 210 210 210 255
409.605 -162.537 -361.267 210 210 210 255
409.605 -162.537 -357.485 210 210 210 255
409.605 -162.537 -353.699 210 210 210 255
409.605 -162.537 -349.908 210 210 210 255
409.605 -162.537 -346.114 210 210 210 255
409.605 -162.537 -342.315 210 210 210 255
409.605 -162.537 -338.512 210 210 210 255
409.605 -162.537 -334.705 210 210 210 255
409.605 -162.537 -330.894 210 210 210 255
409.605 -162.537 -327.079 210 210 210 255
409.605 -162.537 -323.261 210 210 210 255
409.605 -162.537 -319.439 210 210 210 255
409.605 -162.537 -315.614 210 210 210 255
409.605 -162.537 -311.785 210 210 210 255
409.605 -162.537 -307.953 210 210 210 255
409.605 -162.537 -304.118 210 210 210 255
409.605 -162.537 -300.279 210 210 210 255
409.605 -162.537 -296.438 210 210 210 255
409.605 -162.537 -292.593 210 210 210 255
409.605 -162.537 -288.745 210 210 210 255
409.605 -162.537 -284.895 210 210 210 255
409.605 -162.537 -281.041 210 210 210 255
409.605 -162.537 -277.185 210 210 210 255
409.605 -162.537 -273.327 210 210 210 255
409.605 -162.537 -269.466 210 210 210 255
409.605 -162.537 -265.602 210 210 210 255
409.605 -162.537 -261.736 210 210 210 255
409.605 -162.537 -257.868 210 210 210 255
409.605 -162.537 -253.997 210 210 210 255
409.605 -162.537 -250.124 210 210 210 255
409.605 -162.537 -246.249 210 210 210 255
409.605 -162.537 -242.372 210 210 210 255
409.605 -162.537 -238.493 210 210 210 255
409.605 -162.537 -234.612 210 210 210 255
409.605 -162.537 -230.729 210 210 210 255
409.605 -162.537 -226.844 210 210 210 255
409.605 -162.537 -222.958 210 210 210 255
409.605 -162.537 -219.069 210 210 210 255
409.605 -162.537 -215.18 210 210 210 255
409.605 -162.537 -211.288 210 210 210 255
409.605 -162.537 -207.395 210 210 210 255
409.605 -162.537 -203.501 210 210 210 255
409.605 -162.537 -199.605 210 210 210 255
409.605 -162.537 -195.708 210 210 210 255
409.605 -162.537 -191.81 210 210 210 255
409.605 -162.537 -187.91 210 210 210 255
409.605 -162.537 -184.009 210 210 210 255
409.605 -162.537 -180.107 210 210 210 255
409.605 -162.537 -176.204 210 210 210 255
409.605 -162.537 -172.299 210 210 210 255
409.605 -162.537 -168.394 210 210 210 255
409.605 -162.537 -164.488 210 210 210 255
409.605 -162.537 -160.581 210 210 210 255
409.605 -162.537 -156.673 210 210 210 255
409.605 -162.537 -152.764 210 210 210 255
409.605 -162.537 -148.854 210 210 210 255
409.605 -162.537 -144.944 210 210 210 255
409.605 -162.537 -141.032 210 210 210 255
409.605 -162.537 -137.121 210 210 210 255
409.605 -162.537 -133.208 210 210 210 255
409.605 -162.537 -129.295 210 210 210 255
409.605 -162.537 -125.381 210 210 210 255
409.605 -162.537 -121.467 210 210 210 255
409.605 -162.537 -117.553 210 210 210 255
409.605 -162.537 -113.638 210 210 210 255
409.605 -162.537 -109.722 210 210 210 255
409.605 -162.537 -105.806 210 210 210 255
409.605 -162.537 -101.89 210 210 210 255
409.605 -162.537 -97.973 210 210 210 255
409.605 -162.537 -94.0559 210 210 210 255
409.605 -162.537 -90.1385 210 210 210 255
409.605 -162.537 -86.2211 210 210 210 255
409.605 -162.537 -82.303 210 210 210 255
409.605 -162.537 -78.3851 210 210 210 255
409.605 -162.537 -74.4667 210 210 210 255
409.605 -162.537 -70.5482 210 210 210 255
409.605 -162.537 -66.6296 210 210 210 255
409.605 -162.537 -62.7108 210 210 210 255
409.605 -162.537 -58.7918 210 210 210 255
409.605 -162.537 -54.8727 210 210 210 255
409.605 -162.537 -50.9536 210 210 210 255
409.605 -162.537 -47.0342 210 210 210 255
409.605 -162.537 -43.115 210 210 210 255
409.605 -162.537 -39.1956 210 210 210 255
409.605 -162.537 -35.2762 210 210 210 255
409.605 -162.537 -31.3566 210 210 210 255
409.605 -162.537 -27.4371 210 210 210 255
409.605 -162.537 -23.5176 210 210 210 255
409.605 -162.537 -19.5979 210 210 210 255
409.605 -162.537 -15.6785 210 210 210 255
409.605 -162.537 -11.759 210 210 210 255
409.605 -162.537 -7.83911 210 210 210 255
409.605 -162.537 -3.91956 210 210 210 255
409.605 -162.537 0 210 210 210 255
406.287 -159.701 -710.709 210 210 210 255
406.287 -159.701 -708.172 210 210 210 255
406.287 -159.701 -705.614 210 210 210 255
406.287 -159.701 -703.035 210 210 210 255
406.287 -159.701 -700.436 210 210 210 255
406.287 -159.701 -697.817 210 210 210 255
406.287 -159.701 -695.178 210 210 210 255
406.287 -159.701 -692.519 210 210 210 255
406.287 -159.701 -689.84 210 210 210 255
406.287 -159.701 -687.143 210 210 210 255
406.287 -159.701 -684.426 210 210 210 255
406.287 -159.701 -681.69 210 210 210 255
406.287 -159.701 -678.935 210 210 210 255
406.287 -159.701 -676.162 210 210 210 255
406.287 -159.701 -673.371 210 210 210 255
406.287 -159.701 -670.561 210 210 210 255
406.287 -159.701 -667.733 210 210 210 255
406.287 -159.701 -664.888 210 210 210 255
406.287 -159.701 -662.025 210 210 210 255
406.287 -159.701 -659.145 210 210 210 255
406.287 -159.701 -656.248 210 210 210 255
406.287 -159.701 -653.333 210 210 210 255
406.287 -159.701 -650.402 210 210 210 255
406.287 -159.701 -647.454 210 210 210 255
406.287 -159.701 -644.49 210 210 210 255
406.287 -159.701 -641.509 210 210 210 255
406.287 -159.701 -638.513 210 210 210 255
406.287 -159.701 -635.5 210 210 210 255
406.287 -159.701 -632.472 210 210 210 255
406.287 -159.701 -629.429 210 210 210 255
406.287 -159.701 -626.37 210 210 210 255
406.287 -159.701 -623.296 210 210 210 255
