ply
format ascii 1.0
element vertex 1170
property float x
property float y
property float z
property uchar red
property uchar green
property uchar blue
property uchar alpha
end_header
185.042 23.5278 -701.373 210 210 210 255
185.042 23.5278 -693.488 210 210 210 255
185.042 23.5278 -685.603 210 210 210 255
185.042 23.5278 -677.718 210 210 210 255
185.042 23.5278 -669.833 210 210 210 255
185.042 23.5278 -661.949 210 210 210 255
185.042 23.5278 -654.065 210 210 210 255
185.042 23.5278 -646.181 210 210 210 255
185.042 23.5278 -638.298 210 210 210 255
185.042 23.5278 -630.415 210 210 210 255
185.042 23.5278 -622.532 210 210 210 255
185.042 23.5278 -614.65 210 210 210 255
185.042 23.5278 -606.767 210 210 210 255
185.042 23.5278 -598.886 210 210 210 255
185.042 23.5278 -591.004 210 210 210 255
185.042 23.5278 -583.123 210 210 210 255
185.042 23.5278 -575.241 210 210 210 255
185.042 23.5278 -567.361 210 210 210 255
185.042 23.5278 -559.48 210 210 210 255
185.042 23.5278 -551.6 210 210 210 255
185.042 23.5278 -543.72 210 210 210 255
185.042 23.5278 -535.84 210 210 210 255
185.042 23.5278 -527.96 210 210 210 255
185.042 23.5278 -520.081 210 210 210 255
185.042 23.5278 -512.202 210 210 210 255
185.042 23.5278 -504.323 210 210 210 255
185.042 23.5278 -496.444 210 210 210 255
185.042 23.5278 -488.565 210 210 210 255
185.042 23.5278 -480.687 210 210 210 255
185.042 23.5278 -472.809 210 210 210 255
185.042 23.5278 -464.931 210 210 210 255
185.042 23.5278 -457.053 210 210 210 255
185.042 23.5278 -449.175 210 210 210 255
185.042 23.5278 -441.298 210 210 210 255
185.042 23.5278 -433.421 210 210 210 255
185.042 23.5278 -425.543 210 210 210 255
185.042 23.5278 -417.666 210 210 210 255
185.042 23.5278 -409.789 210 210 210 255
185.042 23.5278 -401.912 210 210 210 255
185.042 23.5278 -394.036 210 210 210 255
185.042 23.5278 -386.159 210 210 210 255
185.042 23.5278 -378.282 210 210 210 255
185.042 23.5278 -370.406 210 210 210 255
185.042 23.5278 -362.529 210 210 210 255
185.042 23.5278 -354.653 210 210 210 255
185.042 23.5278 -346.776 210 210 210 255
185.042 23.5278 -338.9 210 210 210 255
185.042 23.5278 -331.023 210 210 210 255
185.042 23.5278 -323.147 210 210 210 255
185.042 23.5278 -315.27 210 210 210 255
185.042 23.5278 -307.394 210 210 210 255
185.042 23.5278 -299.517 210 210 210 255
185.042 23.5278 -291.64 210 210 210 255
185.042 23.5278 -283.764 210 210 210 255
185.042 23.5278 -275.887 210 210 210 255
185.042 23.5278 -268.01 210 210 210 255
185.042 23.5278 -260.133 210 210 210 255
185.042 23.5278 -252.255 210 210 210 255
185.042 23.5278 -244.378 210 210 210 255
185.042 23.5278 -236.5 210 210 210 255
185.042 23.5278 -228.622 210 210 210 255
185.042 23.5278 -220.745 210 210 210 255
185.042 23.5278 -212.866 210 210 210 255
185.042 23.5278 -204.988 210 210 210 255
185.042 23.5278 -197.109 210 210 210 255
185.042 23.5278 -189.23 210 210 210 255
185.042 23.5278 -181.351 210 210 210 255
185.042 23.5278 -173.471 210 210 210 255
185.042 23.5278 -165.591 210 210 210 255
185.042 23.5278 -157.711 210 210 210 255
185.042 23.5278 -149.83 210 210 210 255
185.042 23.5278 -141.949 210 210 210 255
185.042 23.5278 -134.068 210 210 210 255
185.042 23.5278 -126.186 210 210 210 255
185.042 23.5278 -118.303 210 210 210 255
185.042 23.5278 -110.42 210 210 210 255
185.042 23.5278 -102.537 210 210 210 255
185.042 23.5278 -94.6534 210 210 210 255
185.042 23.5278 -86.769 210 210 210 255
185.042 23.5278 -78.8843 210 210 210 255
185.042 23.5278 -70.9985 210 210 210 255
185.042 23.5278 -63.1127 210 210 210 255
185.042 23.5278 -55.2261 210 210 210 255
185.042 23.5278 -47.3386 210 210 210 255
185.042 23.5278 -39.4507 210 210 210 255
185.042 23.5278 -31.562 210 210 210 255
185.042 23.5278 -23.6725 210 210 210 255
185.042 23.5278 -15.7825 210 210 210 255
185.042 23.5278 -7.8916 210 210 210 255
185.042 23.5278 0 210 210 210 255
183.003 25.1309 -780.262 210 210 210 255
183.003 25.1309 -772.372 210 210 210 255
183.003 25.1309 -764.484 210 210 210 255
183.003 25.1309 -756.595 210 210 210 255
183.003 25.1309 -748.707 210 210 210 255
183.003 25.1309 -740.819 210 210 210 255
183.003 25.1309 -732.931 210 210 210 255
183.003 25.1309 -725.044 210 210 210 255
183.003 25.1309 -717.157 210 210 210 255
183.003 25.1309 -709.27 210 210 210 255
183.003 25.1309 -701.384 210 210 210 255
183.003 25.1309 -693.498 210 210 210 255
183.003 25.1309 -685.612 210 210 210 255
183.003 25.1309 -677.727 210 210 210 255
183.003 25.1309 -669.842 210 210 210 255
183.003 25.1309 -661.957 210 210 210 255
183.003 25.1309 -654.073 210 210 210 255
183.003 25.1309 -646.189 210 210 210 255
183.003 25.1309 -638.305 210 210 210 255
183.003 25.1309 -630.422 210 210 210 255
183.003 25.1309 -622.538 210 210 210 255
183.003 25.1309 -614.656 210 210 210 255
183.003 25.1309 -606.773 210 210 210 255
183.003 25.1309 -598.891 210 210 210 255
183.003 25.1309 -591.008 210 210 210 255
183.003 25.1309 -583.127 210 210 210 255
183.003 25.1309 -575.245 210 210 210 255
183.003 25.1309 -567.364 210 210 210 255
183.003 25.1309 -559.483 210 210 210 255
183.003 25.1309 -551.602 210 210 210 255
183.003 25.1309 -543.722 210 210 210 255
183.003 25.1309 -535.842 210 210 210 255
183.003 25.1309 -527.962 210 210 210 255
183.003 25.1309 -520.082 210 210 210 255
183.003 25.1309 -512.203 210 210 210 255
183.003 25.1309 -504.323 210 210 210 255
183.003 25.1309 -496.444 210 210 210 255
183.003 25.1309 -488.565 210 210 210 255
183.003 25.1309 -480.687 210 210 210 255
183.003 25.1309 -472.808 210 210 210 255
183.003 25.1309 -464.93 210 210 210 255
183.003 25.1309 -457.052 210 210 210 255
183.003 25.1309 -449.174 210 210 210 255
183.003 25.1309 -441.296 210 210 210 255
183.003 25.1309 -433.418 210 210 210 255
183.003 25.1309 -425.541 210 210 210 255
183.003 25.1309 -417.663 210 210 210 255
183.003 25.1309 -409.786 210 210 210 255
183.003 25.1309 -401.909 210 210 210 255
183.003 25.1309 -394.032 210 210 210 255
183.003 25.1309 -386.155 210 210 210 255
183.003 25.1309 -378.278 210 210 210 255
183.003 25.1309 -370.401 210 210 210 255
183.003 25.1309 -362.524 210 210 210 255
183.003 25.1309 -354.647 210 210 210 255
183.003 25.1309 -346.771 210 210 210 255
183.003 25.1309 -338.894 210 210 210 255
183.003 25.1309 -331.017 210 210 210 255
183.003 25.1309 -323.141 210 210 210 255
183.003 25.1309 -315.264 210 210 210 255
183.003 25.1309 -307.387 210 210 210 255
183.003 25.1309 -299.51 210 210 210 255
183.003 25.1309 -291.633 210 210 210 255
183.003 25.1309 -283.756 210 210 210 255
183.003 25.1309 -275.879 210 210 210 255
183.003 25.1309 -268.002 210 210 210 255
183.003 25.1309 -260.125 210 210 210 255
183.003 25.1309 -252.247 210 210 210 255
183.003 25.1309 -244.37 210 210 210 255
183.003 25.1309 -236.492 210 210 210 255
183.003 25.1309 -228.614 210 210 210 255
183.003 25.1309 -220.736 210 210 210 255
183.003 25.1309 -212.858 210 210 210 255
183.003 25.1309 -204.979 210 210 210 255
183.003 25.1309 -197.1 210 210 210 255
183.003 25.1309 -189.222 210 210 210 255
183.003 25.1309 -181.342 210 210 210 255
183.003 25.1309 -173.463 210 210 210 255
183.003 25.1309 -165.583 210 210 210 255
183.003 25.1309 -157.702 210 210 210 255
183.003 25.1309 -149.822 210 210 210 255
183.003 25.1309 -141.941 210 210 210 255
183.003 25.1309 -134.06 210 210 210 255
183.003 25.1309 -126.178 210 210 210 255
183.003 25.1309 -118.296 210 210 210 255
183.003 25.1309 -110.413 210 210 210 255
183.003 25.1309 -102.53 210 210 210 255
183.003 25.1309 -94.6469 210 210 210 255
183.003 25.1309 -86.7627 210 210 210 255
183.003 25.1309 -78.8782 210 210 210 255
183.003 25.1309 -70.9932 210 210 210 255
183.003 25.1309 -63.1075 210 210 210 255
183.003 25.1309 -55.2214 210 210 210 255
183.003 25.1309 -47.3345 210 210 210 255
183.003 25.1309 -39.4471 210 210 210 255
183.003 25.1309 -31.5591 210 210 210 255
183.003 25.1309 -23.6703 210 210 210 255
183.003 25.1309 -15.7809 210 210 210 255
183.003 25.1309 -7.89093 210 210 210 255
183.003 25.1309 0 210 210 210 255
181.102 26.8152 -780.279 210 210 210 255
181.102 26.8152 -772.389 210 210 210 255
181.102 26.8152 -764.499 210 210 210 255
181.102 26.8152 -756.61 210 210 210 255
181.102 26.8152 -748.721 210 210 210 255
181.102 26.8152 -740.833 210 210 210 255
181.102 26.8152 -732.945 210 210 210 255
181.102 26.8152 -725.057 210 210 210 255
181.102 26.8152 -717.169 210 210 210 255
181.102 26.8152 -709.282 210 210 210 255
181.102 26.8152 -701.395 210 210 210 255
181.102 26.8152 -693.509 210 210 210 255
181.102 26.8152 -685.623 210 210 210 255
181.102 26.8152 -677.737 210 210 210 255
181.102 26.8152 -669.851 210 210 210 255
181.102 26.8152 -661.966 210 210 210 255
181.102 26.8152 -654.081 210 210 210 255
181.102 26.8152 -646.197 210 210 210 255
181.102 26.8152 -638.312 210 210 210 255
181.102 26.8152 -630.428 210 210 210 255
181.102 26.8152 -622.545 210 210 210 255
181.102 26.8152 -614.662 210 210 210 255
181.102 26.8152 -606.779 210 210 210 255
181.102 26.8152 -598.896 210 210 210 255
181.102 26.8152 -591.013 210 210 210 255
181.102 26.8152 -583.131 210 210 210 255
181.102 26.8152 -575.249 210 210 210 255
181.102 26.8152 -567.368 210 210 210 255
181.102 26.8152 -559.486 210 210 210 255
181.102 26.8152 -551.605 210 210 210 255
181.102 26.8152 -543.724 210 210 210 255
181.102 26.8152 -535.844 210 210 210 255
181.102 26.8152 -527.964 210 210 210 255
181.102 26.8152 -520.083 210 210 210 255
181.102 26.8152 -512.204 210 210 210 255
181.102 26.8152 -504.324 210 210 210 255
181.102 26.8152 -496.445 210 210 210 255
181.102 26.8152 -488.565 210 210 210 255
181.102 26.8152 -480.686 210 210 210 255
181.102 26.8152 -472.808 210 210 210 255
181.102 26.8152 -464.929 210 210 210 255
181.102 26.8152 -457.051 210 210 210 255
181.102 26.8152 -449.172 210 210 210 255
181.102 26.8152 -441.294 210 210 210 255
181.102 26.8152 -433.416 210 210 210 255
181.102 26.8152 -425.538 210 210 210 255
181.102 26.8152 -417.661 210 210 210 255
181.102 26.8152 -409.783 210 210 210 255
181.102 26.8152 -401.906 210 210 210 255
181.102 26.8152 -394.028 210 210 210 255
181.102 26.8152 -386.151 210 210 210 255
181.102 26.8152 -378.274 210 210 210 255
181.102 26.8152 -370.397 210 210 210 255
181.102 26.8152 -362.519 210 210 210 255
181.102 26.8152 -354.642 210 210 210 255
181.102 26.8152 -346.766 210 210 210 255
181.102 26.8152 -338.888 210 210 210 255
181.102 26.8152 -331.012 210 210 210 255
181.102 26.8152 -323.135 210 210 210 255
181.102 26.8152 -315.258 210 210 210 255
181.102 26.8152 -307.381 210 210 210 255
181.102 26.8152 -299.503 210 210 210 255
181.102 26.8152 -291.626 210 210 210 255
181.102 26.8152 -283.749 210 210 210 255
181.102 26.8152 -275.872 210 210 210 255
181.102 26.8152 -267.995 210 210 210 255
181.102 26.8152 -260.117 210 210 210 255
181.102 26.8152 -252.24 210 210 210 255
181.102 26.8152 -244.362 210 210 210 255
181.102 26.8152 -236.484 210 210 210 255
181.102 26.8152 -228.606 210 210 210 255
181.102 26.8152 -220.728 210 210 210 255
181.102 26.8152 -212.85 210 210 210 255
181.102 26.8152 -204.971 210 210 210 255
181.102 26.8152 -197.092 210 210 210 255
181.102 26.8152 -189.213 210 210 210 255
181.102 26.8152 -181.334 210 210 210 255
181.102 26.8152 -173.455 210 210 210 255
181.102 26.8152 -165.575 210 210 210 255
181.102 26.8152 -157.695 210 210 210 255
181.102 26.8152 -149.814 210 210 210 255
181.102 26.8152 -141.933 210 210 210 255
181.102 26.8152 -134.052 210 210 210 255
181.102 26.8152 -126.171 210 210 210 255
181.102 26.8152 -118.289 210 210 210 255
181.102 26.8152 -110.406 210 210 210 255
181.102 26.8152 -102.524 210 210 210 255
181.102 26.8152 -94.6403 210 210 210 255
181.102 26.8152 -86.7566 210 210 210 255
181.102 26.8152 -78.8726 210 210 210 255
181.102 26.8152 -70.9879 210 210 210 255
181.102 26.8152 -63.1028 210 210 210 255
181.102 26.8152 -55.217 210 210 210 255
181.102 26.8152 -47.3307 210 210 210 255
181.102 26.8152 -39.4438 210 210 210 255
181.102 26.8152 -31.5564 210 210 210 255
181.102 26.8152 -23.6683 210 210 210 255
181.102 26.8152 -15.7795 210 210 210 255
181.102 26.8152 -7.89001 210 210 210 255
181.102 26.8152 6.10352e-05 210 210 210 255
179.345 28.5818 -780.296 210 210 210 255
179.345 28.5818 -772.406 210 210 210 255
179.345 28.5818 -764.516 210 210 210 255
179.345 28.5818 -756.626 210 210 210 255
179.345 28.5818 -748.736 210 210 210 255
179.345 28.5818 -740.847 210 210 210 255
179.345 28.5818 -732.958 210 210 210 255
179.345 28.5818 -725.07 210 210 210 255
179.345 28.5818 -717.182 210 210 210 255
179.345 28.5818 -709.294 210 210 210 255
179.345 28.5818 -701.407 210 210 210 255
179.345 28.5818 -693.52 210 210 210 255
179.345 28.5818 -685.633 210 210 210 255
179.345 28.5818 -677.747 210 210 210 255
179.345 28.5818 -669.861 210 210 210 255
179.345 28.5818 -661.975 210 210 210 255
179.345 28.5818 -654.09 210 210 210 255
179.345 28.5818 -646.205 210 210 210 255
179.345 28.5818 -638.32 210 210 210 255
179.345 28.5818 -630.436 210 210 210 255
179.345 28.5818 -622.552 210 210 210 255
179.345 28.5818 -614.668 210 210 210 255
179.345 28.5818 -606.784 210 210 210 255
179.345 28.5818 -598.901 210 210 210 255
179.345 28.5818 -591.018 210 210 210 255
179.345 28.5818 -583.136 210 210 210 255
179.345 28.5818 -575.254 210 210 210 255
179.345 28.5818 -567.372 210 210 210 255
179.345 28.5818 -559.49 210 210 210 255
179.345 28.5818 -551.608 210 210 210 255
179.345 28.5818 -543.727 210 210 210 255
179.345 28.5818 -535.846 210 210 210 255
179.345 28.5818 -527.966 210 210 210 255
179.345 28.5818 -520.085 210 210 210 255
179.345 28.5818 -512.205 210 210 210 255
179.345 28.5818 -504.325 210 210 210 255
179.345 28.5818 -496.445 210 210 210 255
179.345 28.5818 -488.566 210 210 210 255
179.345 28.5818 -480.686 210 210 210 255
179.345 28.5818 -472.807 210 210 210 255
179.345 28.5818 -464.928 210 210 210 255
179.345 28.5818 -457.05 210 210 210 255
179.345 28.5818 -449.171 210 210 210 255
179.345 28.5818 -441.292 210 210 210 255
179.345 28.5818 -433.414 210 210 210 255
179.345 28.5818 -425.536 210 210 210 255
179.345 28.5818 -417.658 210 210 210 255
179.345 28.5818 -409.78 210 210 210 255
179.345 28.5818 -401.902 210 210 210 255
179.345 28.5818 -394.025 210 210 210 255
179.345 28.5818 -386.147 210 210 210 255
179.345 28.5818 -378.27 210 210 210 255
179.345 28.5818 -370.392 210 210 210 255
179.345 28.5818 -362.515 210 210 210 255
179.345 28.5818 -354.638 210 210 210 255
179.345 28.5818 -346.761 210 210 210 255
179.345 28.5818 -338.883 210 210 210 255
179.345 28.5818 -331.006 210 210 210 255
179.345 28.5818 -323.129 210 210 210 255
179.345 28.5818 -315.252 210 210 210 255
179.345 28.5818 -307.374 210 210 210 255
179.345 28.5818 -299.497 210 210 210 255
179.345 28.5818 -291.62 210 210 210 255
179.345 28.5818 -283.743 210 210 210 255
179.345 28.5818 -275.865 210 210 210 255
179.345 28.5818 -267.988 210 210 210 255
179.345 28.5818 -260.11 210 210 210 255
179.345 28.5818 -252.233 210 210 210 255
179.345 28.5818 -244.355 210 210 210 255
179.345 28.5818 -236.477 210 210 210 255
179.345 28.5818 -228.599 210 210 210 255
179.345 28.5818 -220.721 210 210 210 255
179.345 28.5818 -212.842 210 210 210 255
179.345 28.5818 -204.964 210 210 210 255
179.345 28.5818 -197.085 210 210 210 255
179.345 28.5818 -189.206 210 210 210 255
179.345 28.5818 -181.326 210 210 210 255
179.345 28.5818 -173.447 210 210 210 255
179.345 28.5818 -165.567 210 210 210 255
179.345 28.5818 -157.687 210 210 210 255
179.345 28.5818 -149.807 210 210 210 255
179.345 28.5818 -141.926 210 210 210 255
179.345 28.5818 -134.045 210 210 210 255
179.345 28.5818 -126.164 210 210 210 255
179.345 28.5818 -118.282 210 210 210 255
179.345 28.5818 -110.4 210 210 210 255
179.345 28.5818 -102.517 210 210 210 255
179.345 28.5818 -94.6343 210 210 210 255
179.345 28.5818 -86.7509 210 210 210 255
179.345 28.5818 -78.8672 210 210 210 255
179.345 28.5818 -70.9827 210 210 210 255
179.345 28.5818 -63.098 210 210 210 255
179.345 28.5818 -55.2128 210 210 210 255
179.345 28.5818 -47.3269 210 210 210 255
179.345 28.5818 -39.4406 210 210 210 255
179.345 28.5818 -31.5536 210 210 210 255
179.345 28.5818 -23.6662 210 210 210 255
179.345 28.5818 -15.7781 210 210 210 255
179.345 28.5818 -7.88934 210 210 210 255
179.345 28.5818 0 210 210 210 255
177.736 30.4315 -780.314 210 210 210 255
177.736 30.4315 -772.423 210 210 210 255
177.736 30.4315 -764.532 210 210 210 255
177.736 30.4315 -756.642 210 210 210 255
177.736 30.4315 -748.752 210 210 210 255
177.736 30.4315 -740.862 210 210 210 255
177.736 30.4315 -732.972 210 210 210 255
177.736 30.4315 -725.083 210 210 210 255
177.736 30.4315 -717.195 210 210 210 255
177.736 30.4315 -709.306 210 210 210 255
177.736 30.4315 -701.418 210 210 210 255
177.736 30.4315 -693.531 210 210 210 255
177.736 30.4315 -685.644 210 210 210 255
177.736 30.4315 -677.757 210 210 210 255
177.736 30.4315 -669.87 210 210 210 255
177.736 30.4315 -661.984 210 210 210 255
177.736 30.4315 -654.098 210 210 210 255
177.736 30.4315 -646.213 210 210 210 255
177.736 30.4315 -638.328 210 210 210 255
177.736 30.4315 -630.443 210 210 210 255
177.736 30.4315 -622.558 210 210 210 255
177.736 30.4315 -614.674 210 210 210 255
177.736 30.4315 -606.79 210 210 210 255
177.736 30.4315 -598.907 210 210 210 255
177.736 30.4315 -591.024 210 210 210 255
177.736 30.4315 -583.141 210 210 210 255
177.736 30.4315 -575.258 210 210 210 255
177.736 30.4315 -567.376 210 210 210 255
177.736 30.4315 -559.494 210 210 210 255
177.736 30.4315 -551.612 210 210 210 255
177.736 30.4315 -543.73 210 210 210 255
177.736 30.4315 -535.849 210 210 210 255
177.736 30.4315 -527.968 210 210 210 255
177.736 30.4315 -520.087 210 210 210 255
177.736 30.4315 -512.206 210 210 210 255
177.736 30.4315 -504.326 210 210 210 255
177.736 30.4315 -496.446 210 210 210 255
177.736 30.4315 -488.566 210 210 210 255
177.736 30.4315 -480.687 210 210 210 255
177.736 30.4315 -472.807 210 210 210 255
177.736 30.4315 -464.928 210 210 210 255
177.736 30.4315 -457.049 210 210 210 255
177.736 30.4315 -449.17 210 210 210 255
177.736 30.4315 -441.291 210 210 210 255
177.736 30.4315 -433.412 210 210 210 255
177.736 30.4315 -425.534 210 210 210 255
177.736 30.4315 -417.656 210 210 210 255
177.736 30.4315 -409.778 210 210 210 255
177.736 30.4315 -401.9 210 210 210 255
177.736 30.4315 -394.022 210 210 210 255
177.736 30.4315 -386.144 210 210 210 255
177.736 30.4315 -378.266 210 210 210 255
177.736 30.4315 -370.388 210 210 210 255
177.736 30.4315 -362.511 210 210 210 255
177.736 30.4315 -354.633 210 210 210 255
177.736 30.4315 -346.756 210 210 210 255
177.736 30.4315 -338.878 210 210 210 255
177.736 30.4315 -331.001 210 210 210 255
177.736 30.4315 -323.124 210 210 210 255
177.736 30.4315 -315.246 210 210 210 255
177.736 30.4315 -307.369 210 210 210 255
177.736 30.4315 -299.491 210 210 210 255
177.736 30.4315 -291.614 210 210 210 255
177.736 30.4315 -283.737 210 210 210 255
177.736 30.4315 -275.859 210 210 210 255
177.736 30.4315 -267.981 210 210 210 255
177.736 30.4315 -260.104 210 210 210 255
177.736 30.4315 -252.226 210 210 210 255
177.736 30.4315 -244.348 210 210 210 255
177.736 30.4315 -236.47 210 210 210 255
177.736 30.4315 -228.592 210 210 210 255
177.736 30.4315 -220.713 210 210 210 255
177.736 30.4315 -212.835 210 210 210 255
177.736 30.4315 -204.956 210 210 210 255
177.736 30.4315 -197.077 210 210 210 255
177.736 30.4315 -189.198 210 210 210 255
177.736 30.4315 -181.319 210 210 210 255
177.736 30.4315 -173.44 210 210 210 255
177.736 30.4315 -165.56 210 210 210 255
177.736 30.4315 -157.68 210 210 210 255
177.736 30.4315 -149.8 210 210 210 255
177.736 30.4315 -141.919 210 210 210 255
177.736 30.4315 -134.038 210 210 210 255
177.736 30.4315 -126.157 210 210 210 255
177.736 30.4315 -118.275 210 210 210 255
177.736 30.4315 -110.394 210 210 210 255
177.736 30.4315 -102.511 210 210 210 255
177.736 30.4315 -94.6285 210 210 210 255
177.736 30.4315 -86.7455 210 210 210 255
177.736 30.4315 -78.8619 210 210 210 255
177.736 30.4315 -70.9781 210 210 210 255
177.736 30.4315 -63.0936 210 210 210 255
177.736 30.4315 -55.2088 210 210 210 255
177.736 30.4315 -47.3235 210 210 210 255
177.736 30.4315 -39.4376 210 210 210 255
177.736 30.4315 -31.5513 210 210 210 255
177.736 30.4315 -23.6643 210 210 210 255
177.736 30.4315 -15.7768 210 210 210 255
177.736 30.4315 -7.88867 210 210 210 255
177.736 30.4315 0 210 210 210 255
176.279 32.3648 -780.333 210 210 210 255
176.279 32.3648 -772.441 210 210 210 255
176.279 32.3648 -764.549 210 210 210 255
176.279 32.3648 -756.658 210 210 210 255
176.279 32.3648 -748.767 210 210 210 255
176.279 32.3648 -740.877 210 210 210 255
176.279 32.3648 -732.987 210 210 210 255
176.279 32.3648 -725.097 210 210 210 255
176.279 32.3648 -717.208 210 210 210 255
176.279 32.3648 -709.319 210 210 210 255
176.279 32.3648 -701.43 210 210 210 255
176.279 32.3648 -693.542 210 210 210 255
176.279 32.3648 -685.655 210 210 210 255
176.279 32.3648 -677.767 210 210 210 255
176.279 32.3648 -669.88 210 210 210 255
176.279 32.3648 -661.993 210 210 210 255
176.279 32.3648 -654.107 210 210 210 255
176.279 32.3648 -646.221 210 210 210 255
176.279 32.3648 -638.336 210 210 210 255
176.279 32.3648 -630.45 210 210 210 255
176.279 32.3648 -622.565 210 210 210 255
176.279 32.3648 -614.681 210 210 210 255
176.279 32.3648 -606.797 210 210 210 255
176.279 32.3648 -598.913 210 210 210 255
176.279 32.3648 -591.029 210 210 210 255
176.279 32.3648 -583.146 210 210 210 255
176.279 32.3648 -575.263 210 210 210 255
176.279 32.3648 -567.38 210 210 210 255
176.279 32.3648 -559.497 210 210 210 255
176.279 32.3648 -551.615 210 210 210 255
176.279 32.3648 -543.733 210 210 210 255
176.279 32.3648 -535.852 210 210 210 255
176.279 32.3648 -527.97 210 210 210 255
176.279 32.3648 -520.089 210 210 210 255
176.279 32.3648 -512.208 210 210 210 255
176.279 32.3648 -504.327 210 210 210 255
176.279 32.3648 -496.447 210 210 210 255
176.279 32.3648 -488.567 210 210 210 255
176.279 32.3648 -480.687 210 210 210 255
176.279 32.3648 -472.807 210 210 210 255
176.279 32.3648 -464.928 210 210 210 255
176.279 32.3648 -457.048 210 210 210 255
176.279 32.3648 -449.169 210 210 210 255
176.279 32.3648 -441.29 210 210 210 255
176.279 32.3648 -433.411 210 210 210 255
176.279 32.3648 -425.532 210 210 210 255
176.279 32.3648 -417.654 210 210 210 255
176.279 32.3648 -409.775 210 210 210 255
176.279 32.3648 -401.897 210 210 210 255
176.279 32.3648 -394.019 210 210 210 255
176.279 32.3648 -386.141 210 210 210 255
176.279 32.3648 -378.263 210 210 210 255
176.279 32.3648 -370.385 210 210 210 255
176.279 32.3648 -362.507 210 210 210 255
176.279 32.3648 -354.629 210 210 210 255
176.279 32.3648 -346.752 210 210 210 255
176.279 32.3648 -338.874 210 210 210 255
176.279 32.3648 -330.996 210 210 210 255
176.279 32.3648 -323.119 210 210 210 255
176.279 32.3648 -315.241 210 210 210 255
176.279 32.3648 -307.363 210 210 210 255
176.279 32.3648 -299.486 210 210 210 255
176.279 32.3648 -291.608 210 210 210 255
176.279 32.3648 -283.731 210 210 210 255
176.279 32.3648 -275.853 210 210 210 255
176.279 32.3648 -267.975 210 210 210 255
176.279 32.3648 -260.097 210 210 210 255
176.279 32.3648 -252.219 210 210 210 255
176.279 32.3648 -244.341 210 210 210 255
176.279 32.3648 -236.463 210 210 210 255
176.279 32.3648 -228.585 210 210 210 255
176.279 32.3648 -220.706 210 210 210 255
176.279 32.3648 -212.828 210 210 210 255
176.279 32.3648 -204.949 210 210 210 255
176.279 32.3648 -197.07 210 210 210 255
176.279 32.3648 -189.191 210 210 210 255
176.279 32.3648 -181.312 210 210 210 255
176.279 32.3648 -173.433 210 210 210 255
176.279 32.3648 -165.553 210 210 210 255
176.279 32.3648 -157.673 210 210 210 255
176.279 32.3648 -149.793 210 210 210 255
176.279 32.3648 -141.912 210 210 210 255
176.279 32.3648 -134.032 210 210 210 255
176.279 32.3648 -126.151 210 210 210 255
176.279 32.3648 -118.269 210 210 210 255
176.279 32.3648 -110.388 210 210 210 255
176.279 32.3648 -102.506 210 210 210 255
176.279 32.3648 -94.623 210 210 210 255
176.279 32.3648 -86.7402 210 210 210 255
176.279 32.3648 -78.8571 210 210 210 255
176.279 32.3648 -70.9736 210 210 210 255
176.279 32.3648 -63.0894 210 210 210 255
176.279 32.3648 -55.2051 210 210 210 255
176.279 32.3648 -47.3201 210 210 210 255
176.279 32.3648 -39.4347 210 210 210 255
176.279 32.3648 -31.5488 210 210 210 255
176.279 32.3648 -23.6624 210 210 210 255
176.279 32.3648 -15.7755 210 210 210 255
176.279 32.3648 -7.88794 210 210 210 255
176.279 32.3648 -6.10352e-05 210 210 210 255
174.978 34.3825 -780.352 210 210 210 255
174.978 34.3825 -772.459 210 210 210 255
174.978 34.3825 -764.567 210 210 210 255
174.978 34.3825 -756.675 210 210 210 255
174.978 34.3825 -748.783 210 210 210 255
174.978 34.3825 -740.892 210 210 210 255
174.978 34.3825 -733.001 210 210 210 255
174.978 34.3825 -725.111 210 210 210 255
174.978 34.3825 -717.221 210 210 210 255
174.978 34.3825 -709.332 210 210 210 255
174.978 34.3825 -701.443 210 210 210 255
174.978 34.3825 -693.554 210 210 210 255
174.978 34.3825 -685.666 210 210 210 255
174.978 34.3825 -677.778 210 210 210 255
174.978 34.3825 -669.89 210 210 210 255
174.978 34.3825 -662.003 210 210 210 255
174.978 34.3825 -654.116 210 210 210 255
174.978 34.3825 -646.23 210 210 210 255
174.978 34.3825 -638.344 210 210 210 255
174.978 34.3825 -630.458 210 210 210 255
174.978 34.3825 -622.573 210 210 210 255
174.978 34.3825 -614.688 210 210 210 255
174.978 34.3825 -606.803 210 210 210 255
174.978 34.3825 -598.918 210 210 210 255
174.978 34.3825 -591.034 210 210 210 255
174.978 34.3825 -583.151 210 210 210 255
174.978 34.3825 -575.267 210 210 210 255
174.978 34.3825 -567.384 210 210 210 255
174.978 34.3825 -559.501 210 210 210 255
174.978 34.3825 -551.619 210 210 210 255
174.978 34.3825 -543.736 210 210 210 255
174.978 34.3825 -535.854 210 210 210 255
174.978 34.3825 -527.973 210 210 210 255
174.978 34.3825 -520.091 210 210 210 255
174.978 34.3825 -512.21 210 210 210 255
174.978 34.3825 -504.329 210 210 210 255
174.978 34.3825 -496.448 210 210 210 255
174.978 34.3825 -488.568 210 210 210 255
174.978 34.3825 -480.687 210 210 210 255
174.978 34.3825 -472.807 210 210 210 255
174.978 34.3825 -464.927 210 210 210 255
174.978 34.3825 -457.048 210 210 210 255
174.978 34.3825 -449.168 210 210 210 255
174.978 34.3825 -441.289 210 210 210 255
174.978 34.3825 -433.41 210 210 210 255
174.978 34.3825 -425.531 210 210 210 255
174.978 34.3825 -417.652 210 210 210 255
174.978 34.3825 -409.773 210 210 210 255
174.978 34.3825 -401.895 210 210 210 255
174.978 34.3825 -394.016 210 210 210 255
174.978 34.3825 -386.138 210 210 210 255
174.978 34.3825 -378.26 210 210 210 255
174.978 34.3825 -370.381 210 210 210 255
174.978 34.3825 -362.503 210 210 210 255
174.978 34.3825 -354.625 210 210 210 255
174.978 34.3825 -346.747 210 210 210 255
174.978 34.3825 -338.87 210 210 210 255
174.978 34.3825 -330.992 210 210 210 255
174.978 34.3825 -323.114 210 210 210 255
174.978 34.3825 -315.236 210 210 210 255
174.978 34.3825 -307.358 210 210 210 255
174.978 34.3825 -299.481 210 210 210 255
174.978 34.3825 -291.603 210 210 210 255
174.978 34.3825 -283.725 210 210 210 255
174.978 34.3825 -275.847 210 210 210 255
174.978 34.3825 -267.969 210 210 210 255
174.978 34.3825 -260.091 210 210 210 255
174.978 34.3825 -252.213 210 210 210 255
174.978 34.3825 -244.335 210 210 210 255
174.978 34.3825 -236.457 210 210 210 255
174.978 34.3825 -228.578 210 210 210 255
174.978 34.3825 -220.7 210 210 210 255
174.978 34.3825 -212.821 210 210 210 255
174.978 34.3825 -204.943 210 210 210 255
174.978 34.3825 -197.064 210 210 210 255
174.978 34.3825 -189.185 210 210 210 255
174.978 34.3825 -181.306 210 210 210 255
174.978 34.3825 -173.426 210 210 210 255
174.978 34.3825 -165.546 210 210 210 255
174.978 34.3825 -157.667 210 210 210 255
174.978 34.3825 -149.786 210 210 210 255
174.978 34.3825 -141.906 210 210 210 255
174.978 34.3825 -134.025 210 210 210 255
174.978 34.3825 -126.145 210 210 210 255
174.978 34.3825 -118.263 210 210 210 255
174.978 34.3825 -110.382 210 210 210 255
174.978 34.3825 -102.5 210 210 210 255
174.978 34.3825 -94.6177 210 210 210 255
174.978 34.3825 -86.7353 210 210 210 255
174.978 34.3825 -78.8525 210 210 210 255
174.978 34.3825 -70.9692 210 210 210 255
174.978 34.3825 -63.0856 210 210 210 255
174.978 34.3825 -55.2013 210 210 210 255
174.978 34.3825 -47.3169 210 210 210 255
174.978 34.3825 -39.4319 210 210 210 255
174.978 34.3825 -31.5465 210 210 210 255
174.978 34.3825 -23.6607 210 210 210 255
174.978 34.3825 -15.7744 210 210 210 255
174.978 34.3825 -7.88739 210 210 210 255
174.978 34.3825 6.10352e-05 210 210 210 255
173.835 36.4851 -780.371 210 210 210 255
173.835 36.4851 -772.477 210 210 210 255
173.835 36.4851 -764.584 210 210 210 255
173.835 36.4851 -756.692 210 210 210 255
173.835 36.4851 -748.799 210 210 210 255
173.835 36.4851 -740.908 210 210 210 255
173.835 36.4851 -733.016 210 210 210 255
173.835 36.4851 -725.125 210 210 210 255
173.835 36.4851 -717.235 210 210 210 255
173.835 36.4851 -709.345 210 210 210 255
173.835 36.4851 -701.455 210 210 210 255
173.835 36.4851 -693.566 210 210 210 255
173.835 36.4851 -685.677 210 210 210 255
173.835 36.4851 -677.789 210 210 210 255
173.835 36.4851 -669.9 210 210 210 255
173.835 36.4851 -662.013 210 210 210 255
173.835 36.4851 -654.125 210 210 210 255
173.835 36.4851 -646.239 210 210 210 255
173.835 36.4851 -638.352 210 210 210 255
173.835 36.4851 -630.466 210 210 210 255
173.835 36.4851 -622.58 210 210 210 255
173.835 36.4851 -614.694 210 210 210 255
173.835 36.4851 -606.809 210 210 210 255
173.835 36.4851 -598.924 210 210 210 255
173.835 36.4851 -591.04 210 210 210 255
173.835 36.4851 -583.156 210 210 210 255
173.835 36.4851 -575.272 210 210 210 255
173.835 36.4851 -567.389 210 210 210 255
173.835 36.4851 -559.505 210 210 210 255
173.835 36.4851 -551.622 210 210 210 255
173.835 36.4851 -543.74 210 210 210 255
173.835 36.4851 -535.857 210 210 210 255
173.835 36.4851 -527.975 210 210 210 255
173.835 36.4851 -520.093 210 210 210 255
173.835 36.4851 -512.212 210 210 210 255
173.835 36.4851 -504.331 210 210 210 255
173.835 36.4851 -496.45 210 210 210 255
173.835 36.4851 -488.569 210 210 210 255
173.835 36.4851 -480.688 210 210 210 255
173.835 36.4851 -472.808 210 210 210 255
173.835 36.4851 -464.927 210 210 210 255
173.835 36.4851 -457.047 210 210 210 255
173.835 36.4851 -449.168 210 210 210 255
173.835 36.4851 -441.288 210 210 210 255
173.835 36.4851 -433.409 210 210 210 255
173.835 36.4851 -425.529 210 210 210 255
173.835 36.4851 -417.65 210 210 210 255
173.835 36.4851 -409.771 210 210 210 255
173.835 36.4851 -401.892 210 210 210 255
173.835 36.4851 -394.014 210 210 210 255
173.835 36.4851 -386.135 210 210 210 255
173.835 36.4851 -378.257 210 210 210 255
173.835 36.4851 -370.378 210 210 210 255
173.835 36.4851 -362.5 210 210 210 255
173.835 36.4851 -354.622 210 210 210 255
173.835 36.4851 -346.744 210 210 210 255
173.835 36.4851 -338.865 210 210 210 255
173.835 36.4851 -330.987 210 210 210 255
173.835 36.4851 -323.109 210 210 210 255
173.835 36.4851 -315.232 210 210 210 255
173.835 36.4851 -307.353 210 210 210 255
173.835 36.4851 -299.476 210 210 210 255
173.835 36.4851 -291.598 210 210 210 255
173.835 36.4851 -283.72 210 210 210 255
173.835 36.4851 -275.842 210 210 210 255
173.835 36.4851 -267.964 210 210 210 255
173.835 36.4851 -260.086 210 210 210 255
173.835 36.4851 -252.207 210 210 210 255
173.835 36.4851 -244.329 210 210 210 255
173.835 36.4851 -236.451 210 210 210 255
173.835 36.4851 -228.572 210 210 210 255
173.835 36.4851 -220.694 210 210 210 255
173.835 36.4851 -212.815 210 210 210 255
173.835 36.4851 -204.937 210 210 210 255
173.835 36.4851 -197.058 210 210 210 255
173.835 36.4851 -189.179 210 210 210 255
173.835 36.4851 -181.299 210 210 210 255
173.835 36.4851 -173.42 210 210 210 255
173.835 36.4851 -165.54 210 210 210 255
173.835 36.4851 -157.66 210 210 210 255
173.835 36.4851 -149.78 210 210 210 255
173.835 36.4851 -141.9 210 210 210 255
173.835 36.4851 -134.02 210 210 210 255
173.835 36.4851 -126.139 210 210 210 255
173.835 36.4851 -118.258 210 210 210 255
173.835 36.4851 -110.377 210 210 210 255
173.835 36.4851 -102.495 210 210 210 255
173.835 36.4851 -94.6128 210 210 210 255
173.835 36.4851 -86.7307 210 210 210 255
173.835 36.4851 -78.8481 210 210 210 255
173.835 36.4851 -70.9651 210 210 210 255
173.835 36.4851 -63.0817 210 210 210 255
173.835 36.4851 -55.198 210 210 210 255
173.835 36.4851 -47.314 210 210 210 255
173.835 36.4851 -39.4293 210 210 210 255
173.835 36.4851 -31.5444 210 210 210 255
173.835 36.4851 -23.6591 210 210 210 255
173.835 36.4851 -15.7731 210 210 210 255
173.835 36.4851 -7.88678 210 210 210 255
173.835 36.4851 0 210 210 210 255
172.855 38.6732 -780.39 210 210 210 255
172.855 38.6732 -772.496 210 210 210 255
172.855 38.6732 -764.602 210 210 210 255
172.855 38.6732 -756.709 210 210 210 255
172.855 38.6732 -748.816 210 210 210 255
172.855 38.6732 -740.923 210 210 210 255
172.855 38.6732 -733.031 210 210 210 255
172.855 38.6732 -725.14 210 210 210 255
172.855 38.6732 -717.249 210 210 210 255
172.855 38.6732 -709.358 210 210 210 255
172.855 38.6732 -701.468 210 210 210 255
172.855 38.6732 -693.578 210 210 210 255
172.855 38.6732 -685.688 210 210 210 255
172.855 38.6732 -677.799 210 210 210 255
172.855 38.6732 -669.911 210 210 210 255
172.855 38.6732 -662.023 210 210 210 255
172.855 38.6732 -654.135 210 210 210 255
172.855 38.6732 -646.247 210 210 210 255
172.855 38.6732 -638.36 210 210 210 255
172.855 38.6732 -630.474 210 210 210 255
172.855 38.6732 -622.587 210 210 210 255
172.855 38.6732 -614.702 210 210 210 255
172.855 38.6732 -606.816 210 210 210 255
172.855 38.6732 -598.931 210 210 210 255
172.855 38.6732 -591.046 210 210 210 255
172.855 38.6732 -583.161 210 210 210 255
172.855 38.6732 -575.277 210 210 210 255
172.855 38.6732 -567.393 210 210 210 255
172.855 38.6732 -559.51 210 210 210 255
172.855 38.6732 -551.626 210 210 210 255
172.855 38.6732 -543.743 210 210 210 255
172.855 38.6732 -535.86 210 210 210 255
172.855 38.6732 -527.978 210 210 210 255
172.855 38.6732 -520.096 210 210 210 255
172.855 38.6732 -512.214 210 210 210 255
172.855 38.6732 -504.332 210 210 210 255
172.855 38.6732 -496.451 210 210 210 255
172.855 38.6732 -488.57 210 210 210 255
172.855 38.6732 -480.689 210 210 210 255
172.855 38.6732 -472.808 210 210 210 255
172.855 38.6732 -464.928 210 210 210 255
172.855 38.6732 -457.047 210 210 210 255
172.855 38.6732 -449.167 210 210 210 255
172.855 38.6732 -441.287 210 210 210 255
172.855 38.6732 -433.408 210 210 210 255
172.855 38.6732 -425.528 210 210 210 255
172.855 38.6732 -417.649 210 210 210 255
172.855 38.6732 -409.77 210 210 210 255
172.855 38.6732 -401.89 210 210 210 255
172.855 38.6732 -394.011 210 210 210 255
172.855 38.6732 -386.133 210 210 210 255
172.855 38.6732 -378.254 210 210 210 255
172.855 38.6732 -370.375 210 210 210 255
172.855 38.6732 -362.497 210 210 210 255
172.855 38.6732 -354.618 210 210 210 255
172.855 38.6732 -346.74 210 210 210 255
172.855 38.6732 -338.862 210 210 210 255
172.855 38.6732 -330.983 210 210 210 255
172.855 38.6732 -323.105 210 210 210 255
172.855 38.6732 -315.227 210 210 210 255
172.855 38.6732 -307.349 210 210 210 255
172.855 38.6732 -299.471 210 210 210 255
172.855 38.6732 -291.593 210 210 210 255
172.855 38.6732 -283.715 210 210 210 255
172.855 38.6732 -275.836 210 210 210 255
172.855 38.6732 -267.958 210 210 210 255
172.855 38.6732 -260.08 210 210 210 255
172.855 38.6732 -252.202 210 210 210 255
172.855 38.6732 -244.324 210 210 210 255
172.855 38.6732 -236.445 210 210 210 255
172.855 38.6732 -228.567 210 210 210 255
172.855 38.6732 -220.688 210 210 210 255
172.855 38.6732 -212.809 210 210 210 255
172.855 38.6732 -204.931 210 210 210 255
172.855 38.6732 -197.052 210 210 210 255
172.855 38.6732 -189.173 210 210 210 255
172.855 38.6732 -181.293 210 210 210 255
172.855 38.6732 -173.414 210 210 210 255
172.855 38.6732 -165.534 210 210 210 255
172.855 38.6732 -157.655 210 210 210 255
172.855 38.6732 -149.775 210 210 210 255
172.855 38.6732 -141.894 210 210 210 255
172.855 38.6732 -134.014 210 210 210 255
172.855 38.6732 -126.133 210 210 210 255
172.855 38.6732 -118.253 210 210 210 255
172.855 38.6732 -110.371 210 210 210 255
172.855 38.6732 -102.49 210 210 210 255
172.855 38.6732 -94.6082 210 210 210 255
172.855 38.6732 -86.7263 210 210 210 255
172.855 38.6732 -78.8439 210 210 210 255
172.855 38.6732 -70.9612 210 210 210 255
172.855 38.6732 -63.0781 210 210 210 255
172.855 38.6732 -55.1948 210 210 210 255
172.855 38.6732 -47.311 210 210 210 255
172.855 38.6732 -39.4268 210 210 210 255
172.855 38.6732 -31.5423 210 210 210 255
172.855 38.6732 -23.6575 210 210 210 255
172.855 38.6732 -15.772 210 210 210 255
172.855 38.6732 -7.88617 210 210 210 255
172.855 38.6732 0 210 210 210 255
172.038 40.9471 -780.41 210 210 210 255
172.038 40.9471 -772.515 210 210 210 255
172.038 40.9471 -764.62 210 210 210 255
172.038 40.9471 -756.726 210 210 210 255
172.038 40.9471 -748.832 210 210 210 255
172.038 40.9471 -740.939 210 210 210 255
172.038 40.9471 -733.047 210 210 210 255
172.038 40.9471 -725.154 210 210 210 255
172.038 40.9471 -717.263 210 210 210 255
172.038 40.9471 -709.371 210 210 210 255
172.038 40.9471 -701.48 210 210 210 255
172.038 40.9471 -693.59 210 210 210 255
172.038 40.9471 -685.7 210 210 210 255
172.038 40.9471 -677.811 210 210 210 255
172.038 40.9471 -669.921 210 210 210 255
172.038 40.9471 -662.033 210 210 210 255
172.038 40.9471 -654.144 210 210 210 255
172.038 40.9471 -646.256 210 210 210 255
172.038 40.9471 -638.369 210 210 210 255
172.038 40.9471 -630.482 210 210 210 255
172.038 40.9471 -622.595 210 210 210 255
172.038 40.9471 -614.709 210 210 210 255
172.038 40.9471 -606.823 210 210 210 255
172.038 40.9471 -598.937 210 210 210 255
172.038 40.9471 -591.052 210 210 210 255
172.038 40.9471 -583.167 210 210 210 255
172.038 40.9471 -575.282 210 210 210 255
172.038 40.9471 -567.398 210 210 210 255
172.038 40.9471 -559.514 210 210 210 255
172.038 40.9471 -551.63 210 210 210 255
172.038 40.9471 -543.747 210 210 210 255
172.038 40.9471 -535.864 210 210 210 255
172.038 40.9471 -527.981 210 210 210 255
172.038 40.9471 -520.098 210 210 210 255
172.038 40.9471 -512.216 210 210 210 255
172.038 40.9471 -504.334 210 210 210 255
172.038 40.9471 -496.453 210 210 210 255
172.038 40.9471 -488.571 210 210 210 255
172.038 40.9471 -480.69 210 210 210 255
172.038 40.9471 -472.809 210 210 210 255
172.038 40.9471 -464.928 210 210 210 255
172.038 40.9471 -457.047 210 210 210 255
172.038 40.9471 -449.167 210 210 210 255
172.038 40.9471 -441.287 210 210 210 255
172.038 40.9471 -433.407 210 210 210 255
172.038 40.9471 -425.527 210 210 210 255
172.038 40.9471 -417.647 210 210 210 255
172.038 40.9471 -409.768 210 210 210 255
172.038 40.9471 -401.889 210 210 210 255
172.038 40.9471 -394.009 210 210 210 255
172.038 40.9471 -386.13 210 210 210 255
172.038 40.9471 -378.251 210 210 210 255
172.038 40.9471 -370.373 210 210 210 255
172.038 40.9471 -362.494 210 210 210 255
172.038 40.9471 -354.615 210 210 210 255
172.038 40.9471 -346.737 210 210 210 255
172.038 40.9471 -338.858 210 210 210 255
172.038 40.9471 -330.98 210 210 210 255
172.038 40.9471 -323.101 210 210 210 255
172.038 40.9471 -315.223 210 210 210 255
172.038 40.9471 -307.345 210 210 210 255
172.038 40.9471 -299.466 210 210 210 255
172.038 40.9471 -291.588 210 210 210 255
172.038 40.9471 -283.71 210 210 210 255
172.038 40.9471 -275.832 210 210 210 255
172.038 40.9471 -267.953 210 210 210 255
172.038 40.9471 -260.075 210 210 210 255
172.038 40.9471 -252.197 210 210 210 255
172.038 40.9471 -244.318 210 210 210 255
172.038 40.9471 -236.44 210 210 210 255
172.038 40.9471 -228.561 210 210 210 255
172.038 40.9471 -220.683 210 210 210 255
172.038 40.9471 -212.804 210 210 210 255
172.038 40.9471 -204.925 210 210 210 255
172.038 40.9471 -197.046 210 210 210 255
172.038 40.9471 -189.167 210 210 210 255
172.038 40.9471 -181.288 210 210 210 255
172.038 40.9471 -173.409 210 210 210 255
172.038 40.9471 -165.529 210 210 210 255
172.038 40.9471 -157.649 210 210 210 255
172.038 40.9471 -149.769 210 210 210 255
172.038 40.9471 -141.889 210 210 210 255
172.038 40.9471 -134.009 210 210 210 255
172.038 40.9471 -126.128 210 210 210 255
172.038 40.9471 -118.248 210 210 210 255
172.038 40.9471 -110.367 210 210 210 255
172.038 40.9471 -102.485 210 210 210 255
172.038 40.9471 -94.6038 210 210 210 255
172.038 40.9471 -86.722 210 210 210 255
172.038 40.9471 -78.8399 210 210 210 255
172.038 40.9471 -70.9575 210 210 210 255
172.038 40.9471 -63.0748 210 210 210 255
172.038 40.9471 -55.1917 210 210 210 255
172.038 40.9471 -47.3083 210 210 210 255
172.038 40.9471 -39.4246 210 210 210 255
172.038 40.9471 -31.5405 210 210 210 255
172.038 40.9471 -23.6559 210 210 210 255
172.038 40.9471 -15.7711 210 210 210 255
172.038 40.9471 -7.88574 210 210 210 255
172.038 40.9471 6.10352e-05 210 210 210 255
171.388 43.3073 -780.43 210 210 210 255
171.388 43.3073 -772.534 210 210 210 255
171.388 43.3073 -764.638 210 210 210 255
171.388 43.3073 -756.744 210 210 210 255
171.388 43.3073 -748.849 210 210 210 255
171.388 43.3073 -740.955 210 210 210 255
171.388 43.3073 -733.062 210 210 210 255
171.388 43.3073 -725.169 210 210 210 255
171.388 43.3073 -717.277 210 210 210 255
171.388 43.3073 -709.385 210 210 210 255
171.388 43.3073 -701.493 210 210 210 255
171.388 43.3073 -693.602 210 210 210 255
171.388 43.3073 -685.712 210 210 210 255
171.388 43.3073 -677.822 210 210 210 255
171.388 43.3073 -669.932 210 210 210 255
171.388 43.3073 -662.043 210 210 210 255
171.388 43.3073 -654.154 210 210 210 255
171.388 43.3073 -646.266 210 210 210 255
171.388 43.3073 -638.378 210 210 210 255
171.388 43.3073 -630.49 210 210 210 255
171.388 43.3073 -622.603 210 210 210 255
171.388 43.3073 -614.716 210 210 210 255
171.388 43.3073 -606.829 210 210 210 255
171.388 43.3073 -598.943 210 210 210 255
171.388 43.3073 -591.058 210 210 210 255
171.388 43.3073 -583.172 210 210 210 255
171.388 43.3073 -575.287 210 210 210 255
171.388 43.3073 -567.403 210 210 210 255
171.388 43.3073 -559.518 210 210 210 255
171.388 43.3073 -551.634 210 210 210 255
171.388 43.3073 -543.75 210 210 210 255
171.388 43.3073 -535.867 210 210 210 255
171.388 43.3073 -527.984 210 210 210 255
171.388 43.3073 -520.101 210 210 210 255
171.388 43.3073 -512.219 210 210 210 255
171.388 43.3073 -504.336 210 210 210 255
171.388 43.3073 -496.454 210 210 210 255
171.388 43.3073 -488.572 210 210 210 255
171.388 43.3073 -480.691 210 210 210 255
171.388 43.3073 -472.81 210 210 210 255
171.388 43.3073 -464.928 210 210 210 255
171.388 43.3073 -457.048 210 210 210 255
171.388 43.3073 -449.167 210 210 210 255
171.388 43.3073 -441.287 210 210 210 255
171.388 43.3073 -433.406 210 210 210 255
171.388 43.3073 -425.526 210 210 210 255
171.388 43.3073 -417.646 210 210 210 255
171.388 43.3073 -409.767 210 210 210 255
171.388 43.3073 -401.887 210 210 210 255
171.388 43.3073 -394.008 210 210 210 255
171.388 43.3073 -386.128 210 210 210 255
171.388 43.3073 -378.249 210 210 210 255
171.388 43.3073 -370.37 210 210 210 255
171.388 43.3073 -362.491 210 210 210 255
171.388 43.3073 -354.612 210 210 210 255
171.388 43.3073 -346.733 210 210 210 255
171.388 43.3073 -338.855 210 210 210 255
171.388 43.3073 -330.976 210 210 210 255
171.388 43.3073 -323.098 210 210 210 255
171.388 43.3073 -315.219 210 210 210 255
171.388 43.3073 -307.341 210 210 210 255
171.388 43.3073 -299.462 210 210 210 255
171.388 43.3073 -291.584 210 210 210 255
171.388 43.3073 -283.706 210 210 210 255
171.388 43.3073 -275.827 210 210 210 255
171.388 43.3073 -267.949 210 210 210 255
171.388 43.3073 -260.07 210 210 210 255
171.388 43.3073 -252.192 210 210 210 255
171.388 43.3073 -244.313 210 210 210 255
171.388 43.3073 -236.435 210 210 210 255
171.388 43.3073 -228.556 210 210 210 255
171.388 43.3073 -220.677 210 210 210 255
171.388 43.3073 -212.799 210 210 210 255
171.388 43.3073 -204.92 210 210 210 255
171.388 43.3073 -197.041 210 210 210 255
171.388 43.3073 -189.162 210 210 210 255
171.388 43.3073 -181.282 210 210 210 255
171.388 43.3073 -173.403 210 210 210 255
171.388 43.3073 -165.524 210 210 210 255
171.388 43.3073 -157.644 210 210 210 255
171.388 43.3073 -149.764 210 210 210 255
171.388 43.3073 -141.884 210 210 210 255
171.388 43.3073 -134.004 210 210 210 255
171.388 43.3073 -126.124 210 210 210 255
171.388 43.3073 -118.243 210 210 210 255
171.388 43.3073 -110.362 210 210 210 255
171.388 43.3073 -102.481 210 210 210 255
171.388 43.3073 -94.5997 210 210 210 255
171.388 43.3073 -86.7181 210 210 210 255
171.388 43.3073 -78.8362 210 210 210 255
171.388 43.3073 -70.954 210 210 210 255
171.388 43.3073 -63.0715 210 210 210 255
171.388 43.3073 -55.1889 210 210 210 255
171.388 43.3073 -47.3057 210 210 210 255
171.388 43.3073 -39.4224 210 210 210 255
171.388 43.3073 -31.5386 210 210 210 255
171.388 43.3073 -23.6546 210 210 210 255
171.388 43.3073 -15.7702 210 210 210 255
171.388 43.3073 -7.88519 210 210 210 255
171.388 43.3073 0 210 210 210 255
170.905 45.7538 -780.45 210 210 210 255
170.905 45.7538 -772.553 210 210 210 255
170.905 45.7538 -764.657 210 210 210 255
170.905 45.7538 -756.761 210 210 210 255
170.905 45.7538 -748.866 210 210 210 255
170.905 45.7538 -740.972 210 210 210 255
170.905 45.7538 -733.078 210 210 210 255
170.905 45.7538 -725.184 210 210 210 255
170.905 45.7538 -717.291 210 210 210 255
170.905 45.7538 -709.398 210 210 210 255
170.905 45.7538 -701.506 210 210 210 255
170.905 45.7538 -693.615 210 210 210 255
170.905 45.7538 -685.724 210 210 210 255
170.905 45.7538 -677.833 210 210 210 255
170.905 45.7538 -669.943 210 210 210 255
170.905 45.7538 -662.053 210 210 210 255
170.905 45.7538 -654.164 210 210 210 255
170.905 45.7538 -646.275 210 210 210 255
170.905 45.7538 -638.386 210 210 210 255
170.905 45.7538 -630.498 210 210 210 255
170.905 45.7538 -622.611 210 210 210 255
170.905 45.7538 -614.723 210 210 210 255
170.905 45.7538 -606.836 210 210 210 255
170.905 45.7538 -598.95 210 210 210 255
170.905 45.7538 -591.064 210 210 210 255
170.905 45.7538 -583.178 210 210 210 255
170.905 45.7538 -575.293 210 210 210 255
170.905 45.7538 -567.407 210 210 210 255
170.905 45.7538 -559.523 210 210 210 255
170.905 45.7538 -551.638 210 210 210 255
170.905 45.7538 -543.754 210 210 210 255
170.905 45.7538 -535.87 210 210 210 255
170.905 45.7538 -527.987 210 210 210 255
170.905 45.7538 -520.104 210 210 210 255
170.905 45.7538 -512.221 210 210 210 255
170.905 45.7538 -504.338 210 210 210 255
170.905 45.7538 -496.456 210 210 210 255
170.905 45.7538 -488.574 210 210 210 255
170.905 45.7538 -480.692 210 210 210 255
170.905 45.7538 -472.81 210 210 210 255
170.905 45.7538 -464.929 210 210 210 255
170.905 45.7538 -457.048 210 210 210 255
170.905 45.7538 -449.167 210 210 210 255
170.905 45.7538 -441.286 210 210 210 255
170.905 45.7538 -433.406 210 210 210 255
170.905 45.7538 -425.525 210 210 210 255
170.905 45.7538 -417.645 210 210 210 255
170.905 45.7538 -409.765 210 210 210 255
170.905 45.7538 -401.885 210 210 210 255
170.905 45.7538 -394.006 210 210 210 255
170.905 45.7538 -386.126 210 210 210 255
170.905 45.7538 -378.247 210 210 210 255
170.905 45.7538 -370.368 210 210 210 255
170.905 45.7538 -362.489 210 210 210 255
170.905 45.7538 -354.609 210 210 210 255
170.905 45.7538 -346.731 210 210 210 255
170.905 45.7538 -338.852 210 210 210 255
170.905 45.7538 -330.973 210 210 210 255
170.905 45.7538 -323.094 210 210 210 255
170.905 45.7538 -315.216 210 210 210 255
170.905 45.7538 -307.337 210 210 210 255
170.905 45.7538 -299.458 210 210 210 255
170.905 45.7538 -291.58 210 210 210 255
170.905 45.7538 -283.701 210 210 210 255
170.905 45.7538 -275.823 210 210 210 255
170.905 45.7538 -267.944 210 210 210 255
170.905 45.7538 -260.066 210 210 210 255
170.905 45.7538 -252.187 210 210 210 255
170.905 45.7538 -244.308 210 210 210 255
170.905 45.7538 -236.43 210 210 210 255
170.905 45.7538 -228.551 210 210 210 255
170.905 45.7538 -220.672 210 210 210 255
170.905 45.7538 -212.794 210 210 210 255
170.905 45.7538 -204.915 210 210 210 255
170.905 45.7538 -197.036 210 210 210 255
170.905 45.7538 -189.157 210 210 210 255
170.905 45.7538 -181.277 210 210 210 255
170.905 45.7538 -173.398 210 210 210 255
170.905 45.7538 -165.519 210 210 210 255
170.905 45.7538 -157.639 210 210 210 255
