ply
format ascii 1.0
element vertex 1147
property float x
property float y
property float z
property uchar red
property uchar green
property uchar blue
property uchar alpha
end_header
317.953 -20.2347 -90.1624 210 210 210 255
317.953 -20.2347 -86.2416 210 210 210 255
317.953 -20.2347 -82.3206 210 210 210 255
317.953 -20.2347 -78.3998 210 210 210 255
317.953 -20.2347 -74.4791 210 210 210 255
317.953 -20.2347 -70.5587 210 210 210 255
317.953 -20.2347 -66.6381 210 210 210 255
317.953 -20.2347 -62.7177 210 210 210 255
317.953 -20.2347 -58.7974 210 210 210 255
317.953 -20.2347 -54.8772 210 210 210 255
317.953 -20.2347 -50.957 210 210 210 255
317.953 -20.2347 -47.0369 210 210 210 255
317.953 -20.2347 -43.1169 210 210 210 255
317.953 -20.2347 -39.197 210 210 210 255
317.953 -20.2347 -35.2771 210 210 210 255
317.953 -20.2347 -31.3574 210 210 210 255
317.953 -20.2347 -27.4376 210 210 210 255
317.953 -20.2347 -23.5179 210 210 210 255
317.953 -20.2347 -19.5981 210 210 210 255
317.953 -20.2347 -15.6785 210 210 210 255
317.953 -20.2347 -11.7588 210 210 210 255
317.953 -20.2347 -7.83917 210 210 210 255
317.953 -20.2347 -3.91956 210 210 210 255
317.953 -20.2347 0 210 210 210 255
317.891 -17.5169 -776.731 210 210 210 255
317.891 -17.5169 -772.921 210 210 210 255
317.891 -17.5169 -769.108 210 210 210 255
317.891 -17.5169 -765.293 210 210 210 255
317.891 -17.5169 -761.476 210 210 210 255
317.891 -17.5169 -757.656 210 210 210 255
317.891 -17.5169 -753.835 210 210 210 255
317.891 -17.5169 -750.011 210 210 210 255
317.891 -17.5169 -746.185 210 210 210 255
317.891 -17.5169 -742.357 210 210 210 255
317.891 -17.5169 -738.527 210 210 210 255
317.891 -17.5169 -734.694 210 210 210 255
317.891 -17.5169 -730.86 210 210 210 255
317.891 -17.5169 -727.024 210 210 210 255
317.891 -17.5169 -723.186 210 210 210 255
317.891 -17.5169 -719.346 210 210 210 255
317.891 -17.5169 -715.504 210 210 210 255
317.891 -17.5169 -711.66 210 210 210 255
317.891 -17.5169 -707.815 210 210 210 255
317.891 -17.5169 -703.967 210 210 210 255
317.891 -17.5169 -700.118 210 210 210 255
317.891 -17.5169 -696.267 210 210 210 255
317.891 -17.5169 -692.414 210 210 210 255
317.891 -17.5169 -688.559 210 210 210 255
317.891 -17.5169 -684.703 210 210 210 255
317.891 -17.5169 -680.845 210 210 210 255
317.891 -17.5169 -676.986 210 210 210 255
317.891 -17.5169 -673.125 210 210 210 255
317.891 -17.5169 -669.262 210 210 210 255
317.891 -17.5169 -665.398 210 210 210 255
317.891 -17.5169 -661.532 210 210 210 255
317.891 -17.5169 -657.664 210 210 210 255
317.891 -17.5169 -653.796 210 210 210 255
317.891 -17.5169 -649.925 210 210 210 255
317.891 -17.5169 -646.054 210 210 210 255
317.891 -17.5169 -642.181 210 210 210 255
317.891 -17.5169 -638.306 210 210 210 255
317.891 -17.5169 -634.43 210 210 210 255
317.891 -17.5169 -630.553 210 210 210 255
317.891 -17.5169 -626.674 210 210 210 255
317.891 -17.5169 -622.794 210 210 210 255
317.891 -17.5169 -618.913 210 210 210 255
317.891 -17.5169 -615.031 210 210 210 255
317.891 -17.5169 -611.147 210 210 210 255
317.891 -17.5169 -607.262 210 210 210 255
317.891 -17.5169 -603.376 210 210 210 255
317.891 -17.5169 -599.489 210 210 210 255
317.891 -17.5169 -595.601 210 210 210 255
317.891 -17.5169 -591.712 210 210 210 255
317.891 -17.5169 -587.821 210 210 210 255
317.891 -17.5169 -583.93 210 210 210 255
317.891 -17.5169 -580.037 210 210 210 255
317.891 -17.5169 -576.143 210 210 210 255
317.891 -17.5169 -572.248 210 210 210 255
317.891 -17.5169 -568.353 210 210 210 255
317.891 -17.5169 -564.456 210 210 210 255
317.891 -17.5169 -560.558 210 210 210 255
317.891 -17.5169 -556.66 210 210 210 255
317.891 -17.5169 -552.76 210 210 210 255
317.891 -17.5169 -548.86 210 210 210 255
317.891 -17.5169 -544.959 210 210 210 255
317.891 -17.5169 -541.056 210 210 210 255
317.891 -17.5169 -537.154 210 210 210 255
317.891 -17.5169 -533.25 210 210 210 255
317.891 -17.5169 -529.345 210 210 210 255
317.891 -17.5169 -525.44 210 210 210 255
317.891 -17.5169 -521.534 210 210 210 255
317.891 -17.5169 -517.627 210 210 210 255
317.891 -17.5169 -513.719 210 210 210 255
317.891 -17.5169 -509.811 210 210 210 255
317.891 -17.5169 -505.902 210 210 210 255
317.891 -17.5169 -501.992 210 210 210 255
317.891 -17.5169 -498.082 210 210 210 255
317.891 -17.5169 -494.171 210 210 210 255
317.891 -17.5169 -490.259 210 210 210 255
317.891 -17.5169 -486.347 210 210 210 255
317.891 -17.5169 -482.434 210 210 210 255
317.891 -17.5169 -478.521 210 210 210 255
317.891 -17.5169 -474.607 210 210 210 255
317.891 -17.5169 -470.693 210 210 210 255
317.891 -17.5169 -466.778 210 210 210 255
317.891 -17.5169 -462.862 210 210 210 255
317.891 -17.5169 -458.946 210 210 210 255
317.891 -17.5169 -455.03 210 210 210 255
317.891 -17.5169 -451.113 210 210 210 255
317.891 -17.5169 -447.195 210 210 210 255
317.891 -17.5169 -443.278 210 210 210 255
317.891 -17.5169 -439.359 210 210 210 255
317.891 -17.5169 -435.441 210 210 210 255
317.891 -17.5169 -431.521 210 210 210 255
317.891 -17.5169 -427.602 210 210 210 255
317.891 -17.5169 -423.682 210 210 210 255
317.891 -17.5169 -419.762 210 210 210 255
317.891 -17.5169 -415.842 210 210 210 255
317.891 -17.5169 -411.921 210 210 210 255
317.891 -17.5169 -408 210 210 210 255
317.891 -17.5169 -404.078 210 210 210 255
317.891 -17.5169 -400.156 210 210 210 255
317.891 -17.5169 -396.234 210 210 210 255
317.891 -17.5169 -392.312 210 210 210 255
317.891 -17.5169 -388.39 210 210 210 255
317.891 -17.5169 -384.467 210 210 210 255
317.891 -17.5169 -380.544 210 210 210 255
317.891 -17.5169 -376.62 210 210 210 255
317.891 -17.5169 -372.697 210 210 210 255
317.891 -17.5169 -368.773 210 210 210 255
317.891 -17.5169 -364.85 210 210 210 255
317.891 -17.5169 -360.926 210 210 210 255
317.891 -17.5169 -357.001 210 210 210 255
317.891 -17.5169 -353.077 210 210 210 255
317.891 -17.5169 -349.153 210 210 210 255
317.891 -17.5169 -345.228 210 210 210 255
317.891 -17.5169 -341.303 210 210 210 255
317.891 -17.5169 -337.378 210 210 210 255
317.891 -17.5169 -333.453 210 210 210 255
317.891 -17.5169 -329.529 210 210 210 255
317.891 -17.5169 -325.603 210 210 210 255
317.891 -17.5169 -321.678 210 210 210 255
317.891 -17.5169 -317.753 210 210 210 255
317.891 -17.5169 -313.828 210 210 210 255
317.891 -17.5169 -309.902 210 210 210 255
317.891 -17.5169 -305.977 210 210 210 255
317.891 -17.5169 -302.051 210 210 210 255
317.891 -17.5169 -298.126 210 210 210 255
317.891 -17.5169 -294.2 210 210 210 255
317.891 -17.5169 -290.274 210 210 210 255
317.891 -17.5169 -286.349 210 210 210 255
317.891 -17.5169 -282.424 210 210 210 255
317.891 -17.5169 -278.498 210 210 210 255
317.891 -17.5169 -274.572 210 210 210 255
317.891 -17.5169 -270.647 210 210 210 255
317.891 -17.5169 -266.721 210 210 210 255
317.891 -17.5169 -262.796 210 210 210 255
317.891 -17.5169 -258.87 210 210 210 255
317.891 -17.5169 -254.945 210 210 210 255
317.891 -17.5169 -251.02 210 210 210 255
317.891 -17.5169 -247.094 210 210 210 255
317.891 -17.5169 -243.169 210 210 210 255
317.891 -17.5169 -239.244 210 210 210 255
317.891 -17.5169 -235.319 210 210 210 255
317.891 -17.5169 -231.394 210 210 210 255
317.891 -17.5169 -227.469 210 210 210 255
317.891 -17.5169 -223.544 210 210 210 255
317.891 -17.5169 -219.619 210 210 210 255
317.891 -17.5169 -215.694 210 210 210 255
317.891 -17.5169 -211.77 210 210 210 255
317.891 -17.5169 -207.845 210 210 210 255
317.891 -17.5169 -203.921 210 210 210 255
317.891 -17.5169 -199.997 210 210 210 255
317.891 -17.5169 -196.072 210 210 210 255
317.891 -17.5169 -192.148 210 210 210 255
317.891 -17.5169 -188.224 210 210 210 255
317.891 -17.5169 -184.3 210 210 210 255
317.891 -17.5169 -180.377 210 210 210 255
317.891 -17.5169 -176.453 210 210 210 255
317.891 -17.5169 -172.529 210 210 210 255
317.891 -17.5169 -168.606 210 210 210 255
317.891 -17.5169 -164.682 210 210 210 255
317.891 -17.5169 -160.759 210 210 210 255
317.891 -17.5169 -156.836 210 210 210 255
317.891 -17.5169 -152.913 210 210 210 255
317.891 -17.5169 -148.99 210 210 210 255
317.891 -17.5169 -145.068 210 210 210 255
317.891 -17.5169 -141.145 210 210 210 255
317.891 -17.5169 -137.223 210 210 210 255
317.891 -17.5169 -133.3 210 210 210 255
317.891 -17.5169 -129.378 210 210 210 255
317.891 -17.5169 -125.456 210 210 210 255
317.891 -17.5169 -121.534 210 210 210 255
317.891 -17.5169 -117.612 210 210 210 255
317.891 -17.5169 -113.69 210 210 210 255
317.891 -17.5169 -109.769 210 210 210 255
317.891 -17.5169 -105.847 210 210 210 255
317.891 -17.5169 -101.926 210 210 210 255
317.891 -17.5169 -98.0045 210 210 210 255
317.891 -17.5169 -94.0834 210 210 210 255
317.891 -17.5169 -90.1624 210 210 210 255
317.891 -17.5169 -86.2413 210 210 210 255
317.891 -17.5169 -82.3205 210 210 210 255
317.891 -17.5169 -78.3997 210 210 210 255
317.891 -17.5169 -74.479 210 210 210 255
317.891 -17.5169 -70.5584 210 210 210 255
317.891 -17.5169 -66.6382 210 210 210 255
317.891 -17.5169 -62.7177 210 210 210 255
317.891 -17.5169 -58.7975 210 210 210 255
317.891 -17.5169 -54.8771 210 210 210 255
317.891 -17.5169 -50.9571 210 210 210 255
317.891 -17.5169 -47.0369 210 210 210 255
317.891 -17.5169 -43.1171 210 210 210 255
317.891 -17.5169 -39.197 210 210 210 255
317.891 -17.5169 -35.2772 210 210 210 255
317.891 -17.5169 -31.3574 210 210 210 255
317.891 -17.5169 -27.4376 210 210 210 255
317.891 -17.5169 -23.5178 210 210 210 255
317.891 -17.5169 -19.5981 210 210 210 255
317.891 -17.5169 -15.6785 210 210 210 255
317.891 -17.5169 -11.7589 210 210 210 255
317.891 -17.5169 -7.83929 210 210 210 255
317.891 -17.5169 -3.91962 210 210 210 255
317.891 -17.5169 -6.10352e-05 210 210 210 255
317.819 -14.8022 -777.203 210 210 210 255
317.819 -14.8022 -773.383 210 210 210 255
317.819 -14.8022 -769.56 210 210 210 255
317.819 -14.8022 -765.735 210 210 210 255
317.819 -14.8022 -761.908 210 210 210 255
317.819 -14.8022 -758.079 210 210 210 255
317.819 -14.8022 -754.248 210 210 210 255
317.819 -14.8022 -750.415 210 210 210 255
317.819 -14.8022 -746.58 210 210 210 255
317.819 -14.8022 -742.743 210 210 210 255
317.819 -14.8022 -738.904 210 210 210 255
317.819 -14.8022 -735.063 210 210 210 255
317.819 -14.8022 -731.221 210 210 210 255
317.819 -14.8022 -727.376 210 210 210 255
317.819 -14.8022 -723.53 210 210 210 255
317.819 -14.8022 -719.682 210 210 210 255
317.819 -14.8022 -715.832 210 210 210 255
317.819 -14.8022 -711.98 210 210 210 255
317.819 -14.8022 -708.127 210 210 210 255
317.819 -14.8022 -704.272 210 210 210 255
317.819 -14.8022 -700.415 210 210 210 255
317.819 -14.8022 -696.557 210 210 210 255
317.819 -14.8022 -692.697 210 210 210 255
317.819 -14.8022 -688.836 210 210 210 255
317.819 -14.8022 -684.972 210 210 210 255
317.819 -14.8022 -681.108 210 210 210 255
317.819 -14.8022 -677.242 210 210 210 255
317.819 -14.8022 -673.374 210 210 210 255
317.819 -14.8022 -669.505 210 210 210 255
317.819 -14.8022 -665.635 210 210 210 255
317.819 -14.8022 -661.763 210 210 210 255
317.819 -14.8022 -657.889 210 210 210 255
317.819 -14.8022 -654.015 210 210 210 255
317.819 -14.8022 -650.139 210 210 210 255
317.819 -14.8022 -646.261 210 210 210 255
317.819 -14.8022 -642.383 210 210 210 255
317.819 -14.8022 -638.503 210 210 210 255
317.819 -14.8022 -634.622 210 210 210 255
317.819 -14.8022 -630.739 210 210 210 255
317.819 -14.8022 -626.855 210 210 210 255
317.819 -14.8022 -622.971 210 210 210 255
317.819 -14.8022 -619.084 210 210 210 255
317.819 -14.8022 -615.197 210 210 210 255
317.819 -14.8022 -611.309 210 210 210 255
317.819 -14.8022 -607.42 210 210 210 255
317.819 -14.8022 -603.529 210 210 210 255
317.819 -14.8022 -599.638 210 210 210 255
317.819 -14.8022 -595.745 210 210 210 255
317.819 -14.8022 -591.851 210 210 210 255
317.819 -14.8022 -587.957 210 210 210 255
317.819 -14.8022 -584.061 210 210 210 255
317.819 -14.8022 -580.164 210 210 210 255
317.819 -14.8022 -576.267 210 210 210 255
317.819 -14.8022 -572.368 210 210 210 255
317.819 -14.8022 -568.469 210 210 210 255
317.819 -14.8022 -564.569 210 210 210 255
317.819 -14.8022 -560.668 210 210 210 255
317.819 -14.8022 -556.766 210 210 210 255
317.819 -14.8022 -552.863 210 210 210 255
317.819 -14.8022 -548.959 210 210 210 255
317.819 -14.8022 -545.055 210 210 210 255
317.819 -14.8022 -541.149 210 210 210 255
317.819 -14.8022 -537.243 210 210 210 255
317.819 -14.8022 -533.337 210 210 210 255
317.819 -14.8022 -529.429 210 210 210 255
317.819 -14.8022 -525.521 210 210 210 255
317.819 -14.8022 -521.612 210 210 210 255
317.819 -14.8022 -517.703 210 210 210 255
317.819 -14.8022 -513.792 210 210 210 255
317.819 -14.8022 -509.882 210 210 210 255
317.819 -14.8022 -505.97 210 210 210 255
317.819 -14.8022 -502.058 210 210 210 255
317.819 -14.8022 -498.145 210 210 210 255
317.819 -14.8022 -494.232 210 210 210 255
317.819 -14.8022 -490.318 210 210 210 255
317.819 -14.8022 -486.404 210 210 210 255
317.819 -14.8022 -482.489 210 210 210 255
317.819 -14.8022 -478.574 210 210 210 255
317.819 -14.8022 -474.658 210 210 210 255
317.819 -14.8022 -470.741 210 210 210 255
317.819 -14.8022 -466.824 210 210 210 255
317.819 -14.8022 -462.907 210 210 210 255
317.819 -14.8022 -458.989 210 210 210 255
317.819 -14.8022 -455.071 210 210 210 255
317.819 -14.8022 -451.152 210 210 210 255
317.819 -14.8022 -447.233 210 210 210 255
317.819 -14.8022 -443.314 210 210 210 255
317.819 -14.8022 -439.394 210 210 210 255
317.819 -14.8022 -435.474 210 210 210 255
317.819 -14.8022 -431.553 210 210 210 255
317.819 -14.8022 -427.633 210 210 210 255
317.819 -14.8022 -423.712 210 210 210 255
317.819 -14.8022 -419.79 210 210 210 255
317.819 -14.8022 -415.868 210 210 210 255
317.819 -14.8022 -411.946 210 210 210 255
317.819 -14.8022 -408.024 210 210 210 255
317.819 -14.8022 -404.101 210 210 210 255
317.819 -14.8022 -400.179 210 210 210 255
317.819 -14.8022 -396.255 210 210 210 255
317.819 -14.8022 -392.332 210 210 210 255
317.819 -14.8022 -388.409 210 210 210 255
317.819 -14.8022 -384.485 210 210 210 255
317.819 -14.8022 -380.561 210 210 210 255
317.819 -14.8022 -376.637 210 210 210 255
317.819 -14.8022 -372.712 210 210 210 255
317.819 -14.8022 -368.788 210 210 210 255
317.819 -14.8022 -364.863 210 210 210 255
317.819 -14.8022 -360.939 210 210 210 255
317.819 -14.8022 -357.014 210 210 210 255
317.819 -14.8022 -353.089 210 210 210 255
317.819 -14.8022 -349.164 210 210 210 255
317.819 -14.8022 -345.238 210 210 210 255
317.819 -14.8022 -341.313 210 210 210 255
317.819 -14.8022 -337.388 210 210 210 255
317.819 -14.8022 -333.462 210 210 210 255
317.819 -14.8022 -329.537 210 210 210 255
317.819 -14.8022 -325.611 210 210 210 255
317.819 -14.8022 -321.685 210 210 210 255
317.819 -14.8022 -317.759 210 210 210 255
317.819 -14.8022 -313.834 210 210 210 255
317.819 -14.8022 -309.908 210 210 210 255
317.819 -14.8022 -305.982 210 210 210 255
317.819 -14.8022 -302.056 210 210 210 255
317.819 -14.8022 -298.13 210 210 210 255
317.819 -14.8022 -294.204 210 210 210 255
317.819 -14.8022 -290.278 210 210 210 255
317.819 -14.8022 -286.353 210 210 210 255
317.819 -14.8022 -282.427 210 210 210 255
317.819 -14.8022 -278.501 210 210 210 255
317.819 -14.8022 -274.575 210 210 210 255
317.819 -14.8022 -270.649 210 210 210 255
317.819 -14.8022 -266.724 210 210 210 255
317.819 -14.8022 -262.798 210 210 210 255
317.819 -14.8022 -258.872 210 210 210 255
317.819 -14.8022 -254.947 210 210 210 255
317.819 -14.8022 -251.021 210 210 210 255
317.819 -14.8022 -247.096 210 210 210 255
317.819 -14.8022 -243.17 210 210 210 255
317.819 -14.8022 -239.245 210 210 210 255
317.819 -14.8022 -235.32 210 210 210 255
317.819 -14.8022 -231.395 210 210 210 255
317.819 -14.8022 -227.469 210 210 210 255
317.819 -14.8022 -223.545 210 210 210 255
317.819 -14.8022 -219.62 210 210 210 255
317.819 -14.8022 -215.695 210 210 210 255
317.819 -14.8022 -211.77 210 210 210 255
317.819 -14.8022 -207.846 210 210 210 255
317.819 -14.8022 -203.921 210 210 210 255
317.819 -14.8022 -199.997 210 210 210 255
317.819 -14.8022 -196.072 210 210 210 255
317.819 -14.8022 -192.148 210 210 210 255
317.819 -14.8022 -188.224 210 210 210 255
317.819 -14.8022 -184.3 210 210 210 255
317.819 -14.8022 -180.376 210 210 210 255
317.819 -14.8022 -176.453 210 210 210 255
317.819 -14.8022 -172.529 210 210 210 255
317.819 -14.8022 -168.606 210 210 210 255
317.819 -14.8022 -164.682 210 210 210 255
317.819 -14.8022 -160.759 210 210 210 255
317.819 -14.8022 -156.836 210 210 210 255
317.819 -14.8022 -152.913 210 210 210 255
317.819 -14.8022 -148.99 210 210 210 255
317.819 -14.8022 -145.067 210 210 210 255
317.819 -14.8022 -141.145 210 210 210 255
317.819 -14.8022 -137.222 210 210 210 255
317.819 -14.8022 -133.3 210 210 210 255
317.819 -14.8022 -129.378 210 210 210 255
317.819 -14.8022 -125.456 210 210 210 255
317.819 -14.8022 -121.534 210 210 210 255
317.819 -14.8022 -117.612 210 210 210 255
317.819 -14.8022 -113.69 210 210 210 255
317.819 -14.8022 -109.768 210 210 210 255
317.819 -14.8022 -105.847 210 210 210 255
317.819 -14.8022 -101.926 210 210 210 255
317.819 -14.8022 -98.0044 210 210 210 255
317.819 -14.8022 -94.0832 210 210 210 255
317.819 -14.8022 -90.162 210 210 210 255
317.819 -14.8022 -86.2412 210 210 210 255
317.819 -14.8022 -82.3204 210 210 210 255
317.819 -14.8022 -78.3997 210 210 210 255
317.819 -14.8022 -74.4791 210 210 210 255
317.819 -14.8022 -70.5584 210 210 210 255
317.819 -14.8022 -66.6381 210 210 210 255
317.819 -14.8022 -62.7177 210 210 210 255
317.819 -14.8022 -58.7974 210 210 210 255
317.819 -14.8022 -54.8771 210 210 210 255
317.819 -14.8022 -50.957 210 210 210 255
317.819 -14.8022 -47.0369 210 210 210 255
317.819 -14.8022 -43.1169 210 210 210 255
317.819 -14.8022 -39.197 210 210 210 255
317.819 -14.8022 -35.2772 210 210 210 255
317.819 -14.8022 -31.3572 210 210 210 255
317.819 -14.8022 -27.4375 210 210 210 255
317.819 -14.8022 -23.5178 210 210 210 255
317.819 -14.8022 -19.5981 210 210 210 255
317.819 -14.8022 -15.6785 210 210 210 255
317.819 -14.8022 -11.7588 210 210 210 255
317.819 -14.8022 -7.83917 210 210 210 255
317.819 -14.8022 -3.91956 210 210 210 255
317.819 -14.8022 0 210 210 210 255
317.737 -12.0905 -777.685 210 210 210 255
317.737 -12.0905 -773.854 210 210 210 255
317.737 -12.0905 -770.021 210 210 210 255
317.737 -12.0905 -766.186 210 210 210 255
317.737 -12.0905 -762.349 210 210 210 255
317.737 -12.0905 -758.51 210 210 210 255
317.737 -12.0905 -754.67 210 210 210 255
317.737 -12.0905 -750.827 210 210 210 255
317.737 -12.0905 -746.983 210 210 210 255
317.737 -12.0905 -743.137 210 210 210 255
317.737 -12.0905 -739.289 210 210 210 255
317.737 -12.0905 -735.439 210 210 210 255
317.737 -12.0905 -731.588 210 210 210 255
317.737 -12.0905 -727.735 210 210 210 255
317.737 -12.0905 -723.88 210 210 210 255
317.737 -12.0905 -720.024 210 210 210 255
317.737 -12.0905 -716.166 210 210 210 255
317.737 -12.0905 -712.307 210 210 210 255
317.737 -12.0905 -708.445 210 210 210 255
317.737 -12.0905 -704.583 210 210 210 255
317.737 -12.0905 -700.719 210 210 210 255
317.737 -12.0905 -696.853 210 210 210 255
317.737 -12.0905 -692.986 210 210 210 255
317.737 -12.0905 -689.117 210 210 210 255
317.737 -12.0905 -685.247 210 210 210 255
317.737 -12.0905 -681.376 210 210 210 255
317.737 -12.0905 -677.503 210 210 210 255
317.737 -12.0905 -673.629 210 210 210 255
317.737 -12.0905 -669.753 210 210 210 255
317.737 -12.0905 -665.877 210 210 210 255
317.737 -12.0905 -661.998 210 210 210 255
317.737 -12.0905 -658.119 210 210 210 255
317.737 -12.0905 -654.238 210 210 210 255
317.737 -12.0905 -650.356 210 210 210 255
317.737 -12.0905 -646.473 210 210 210 255
317.737 -12.0905 -642.589 210 210 210 255
317.737 -12.0905 -638.703 210 210 210 255
317.737 -12.0905 -634.817 210 210 210 255
317.737 -12.0905 -630.929 210 210 210 255
317.737 -12.0905 -627.04 210 210 210 255
317.737 -12.0905 -623.15 210 210 210 255
317.737 -12.0905 -619.259 210 210 210 255
317.737 -12.0905 -615.367 210 210 210 255
317.737 -12.0905 -611.474 210 210 210 255
317.737 -12.0905 -607.58 210 210 210 255
317.737 -12.0905 -603.685 210 210 210 255
317.737 -12.0905 -599.789 210 210 210 255
317.737 -12.0905 -595.892 210 210 210 255
317.737 -12.0905 -591.994 210 210 210 255
317.737 -12.0905 -588.095 210 210 210 255
317.737 -12.0905 -584.195 210 210 210 255
317.737 -12.0905 -580.295 210 210 210 255
317.737 -12.0905 -576.393 210 210 210 255
317.737 -12.0905 -572.491 210 210 210 255
317.737 -12.0905 -568.588 210 210 210 255
317.737 -12.0905 -564.684 210 210 210 255
317.737 -12.0905 -560.779 210 210 210 255
317.737 -12.0905 -556.874 210 210 210 255
317.737 -12.0905 -552.967 210 210 210 255
317.737 -12.0905 -549.06 210 210 210 255
317.737 -12.0905 -545.153 210 210 210 255
317.737 -12.0905 -541.244 210 210 210 255
317.737 -12.0905 -537.335 210 210 210 255
317.737 -12.0905 -533.425 210 210 210 255
317.737 -12.0905 -529.515 210 210 210 255
317.737 -12.0905 -525.604 210 210 210 255
317.737 -12.0905 -521.692 210 210 210 255
317.737 -12.0905 -517.78 210 210 210 255
317.737 -12.0905 -513.867 210 210 210 255
317.737 -12.0905 -509.954 210 210 210 255
317.737 -12.0905 -506.04 210 210 210 255
317.737 -12.0905 -502.125 210 210 210 255
317.737 -12.0905 -498.21 210 210 210 255
317.737 -12.0905 -494.294 210 210 210 255
317.737 -12.0905 -490.378 210 210 210 255
317.737 -12.0905 -486.462 210 210 210 255
317.737 -12.0905 -482.545 210 210 210 255
317.737 -12.0905 -478.627 210 210 210 255
317.737 -12.0905 -474.709 210 210 210 255
317.737 -12.0905 -470.791 210 210 210 255
317.737 -12.0905 -466.872 210 210 210 255
317.737 -12.0905 -462.953 210 210 210 255
317.737 -12.0905 -459.033 210 210 210 255
317.737 -12.0905 -455.113 210 210 210 255
317.737 -12.0905 -451.193 210 210 210 255
317.737 -12.0905 -447.272 210 210 210 255
317.737 -12.0905 -443.351 210 210 210 255
317.737 -12.0905 -439.43 210 210 210 255
317.737 -12.0905 -435.508 210 210 210 255
317.737 -12.0905 -431.586 210 210 210 255
317.737 -12.0905 -427.664 210 210 210 255
317.737 -12.0905 -423.742 210 210 210 255
317.737 -12.0905 -419.819 210 210 210 255
317.737 -12.0905 -415.896 210 210 210 255
317.737 -12.0905 -411.972 210 210 210 255
317.737 -12.0905 -408.049 210 210 210 255
317.737 -12.0905 -404.125 210 210 210 255
317.737 -12.0905 -400.201 210 210 210 255
317.737 -12.0905 -396.277 210 210 210 255
317.737 -12.0905 -392.353 210 210 210 255
317.737 -12.0905 -388.428 210 210 210 255
317.737 -12.0905 -384.503 210 210 210 255
317.737 -12.0905 -380.578 210 210 210 255
317.737 -12.0905 -376.654 210 210 210 255
317.737 -12.0905 -372.728 210 210 210 255
317.737 -12.0905 -368.803 210 210 210 255
317.737 -12.0905 -364.878 210 210 210 255
317.737 -12.0905 -360.952 210 210 210 255
317.737 -12.0905 -357.026 210 210 210 255
317.737 -12.0905 -353.101 210 210 210 255
317.737 -12.0905 -349.175 210 210 210 255
317.737 -12.0905 -345.249 210 210 210 255
317.737 -12.0905 -341.323 210 210 210 255
317.737 -12.0905 -337.397 210 210 210 255
317.737 -12.0905 -333.471 210 210 210 255
317.737 -12.0905 -329.545 210 210 210 255
317.737 -12.0905 -325.619 210 210 210 255
317.737 -12.0905 -321.692 210 210 210 255
317.737 -12.0905 -317.766 210 210 210 255
317.737 -12.0905 -313.84 210 210 210 255
317.737 -12.0905 -309.914 210 210 210 255
317.737 -12.0905 -305.987 210 210 210 255
317.737 -12.0905 -302.061 210 210 210 255
317.737 -12.0905 -298.135 210 210 210 255
317.737 -12.0905 -294.209 210 210 210 255
317.737 -12.0905 -290.283 210 210 210 255
317.737 -12.0905 -286.356 210 210 210 255
317.737 -12.0905 -282.43 210 210 210 255
317.737 -12.0905 -278.504 210 210 210 255
317.737 -12.0905 -274.578 210 210 210 255
317.737 -12.0905 -270.652 210 210 210 255
317.737 -12.0905 -266.726 210 210 210 255
317.737 -12.0905 -262.8 210 210 210 255
317.737 -12.0905 -258.874 210 210 210 255
317.737 -12.0905 -254.948 210 210 210 255
317.737 -12.0905 -251.023 210 210 210 255
317.737 -12.0905 -247.097 210 210 210 255
317.737 -12.0905 -243.172 210 210 210 255
317.737 -12.0905 -239.246 210 210 210 255
317.737 -12.0905 -235.321 210 210 210 255
317.737 -12.0905 -231.395 210 210 210 255
317.737 -12.0905 -227.47 210 210 210 255
317.737 -12.0905 -223.545 210 210 210 255
317.737 -12.0905 -219.62 210 210 210 255
317.737 -12.0905 -215.695 210 210 210 255
317.737 -12.0905 -211.77 210 210 210 255
317.737 -12.0905 -207.846 210 210 210 255
317.737 -12.0905 -203.921 210 210 210 255
317.737 -12.0905 -199.997 210 210 210 255
317.737 -12.0905 -196.072 210 210 210 255
317.737 -12.0905 -192.148 210 210 210 255
317.737 -12.0905 -188.224 210 210 210 255
317.737 -12.0905 -184.3 210 210 210 255
317.737 -12.0905 -180.376 210 210 210 255
317.737 -12.0905 -176.452 210 210 210 255
317.737 -12.0905 -172.529 210 210 210 255
317.737 -12.0905 -168.605 210 210 210 255
317.737 -12.0905 -164.682 210 210 210 255
317.737 -12.0905 -160.759 210 210 210 255
317.737 -12.0905 -156.836 210 210 210 255
317.737 -12.0905 -152.913 210 210 210 255
317.737 -12.0905 -148.99 210 210 210 255
317.737 -12.0905 -145.067 210 210 210 255
317.737 -12.0905 -141.144 210 210 210 255
317.737 -12.0905 -137.222 210 210 210 255
317.737 -12.0905 -133.3 210 210 210 255
317.737 -12.0905 -129.378 210 210 210 255
317.737 -12.0905 -125.456 210 210 210 255
317.737 -12.0905 -121.533 210 210 210 255
317.737 -12.0905 -117.612 210 210 210 255
317.737 -12.0905 -113.69 210 210 210 255
317.737 -12.0905 -109.768 210 210 210 255
317.737 -12.0905 -105.847 210 210 210 255
317.737 -12.0905 -101.926 210 210 210 255
317.737 -12.0905 -98.0043 210 210 210 255
317.737 -12.0905 -94.0831 210 210 210 255
317.737 -12.0905 -90.162 210 210 210 255
317.737 -12.0905 -86.241 210 210 210 255
317.737 -12.0905 -82.3203 210 210 210 255
317.737 -12.0905 -78.3997 210 210 210 255
317.737 -12.0905 -74.4789 210 210 210 255
317.737 -12.0905 -70.5584 210 210 210 255
317.737 -12.0905 -66.6379 210 210 210 255
317.737 -12.0905 -62.7177 210 210 210 255
317.737 -12.0905 -58.7973 210 210 210 255
317.737 -12.0905 -54.877 210 210 210 255
317.737 -12.0905 -50.957 210 210 210 255
317.737 -12.0905 -47.037 210 210 210 255
317.737 -12.0905 -43.1169 210 210 210 255
317.737 -12.0905 -39.1971 210 210 210 255
317.737 -12.0905 -35.2772 210 210 210 255
317.737 -12.0905 -31.3574 210 210 210 255
317.737 -12.0905 -27.4376 210 210 210 255
317.737 -12.0905 -23.5178 210 210 210 255
317.737 -12.0905 -19.5981 210 210 210 255
317.737 -12.0905 -15.6785 210 210 210 255
317.737 -12.0905 -11.759 210 210 210 255
317.737 -12.0905 -7.83929 210 210 210 255
317.737 -12.0905 -3.91956 210 210 210 255
317.737 -12.0905 0 210 210 210 255
317.646 -9.3819 -778.175 210 210 210 255
317.646 -9.3819 -774.333 210 210 210 255
317.646 -9.3819 -770.49 210 210 210 255
317.646 -9.3819 -766.645 210 210 210 255
317.646 -9.3819 -762.798 210 210 210 255
317.646 -9.3819 -758.949 210 210 210 255
317.646 -9.3819 -755.099 210 210 210 255
317.646 -9.3819 -751.247 210 210 210 255
317.646 -9.3819 -747.393 210 210 210 255
317.646 -9.3819 -743.538 210 210 210 255
317.646 -9.3819 -739.681 210 210 210 255
317.646 -9.3819 -735.822 210 210 210 255
317.646 -9.3819 -731.962 210 210 210 255
317.646 -9.3819 -728.101 210 210 210 255
317.646 -9.3819 -724.237 210 210 210 255
317.646 -9.3819 -720.373 210 210 210 255
317.646 -9.3819 -716.507 210 210 210 255
317.646 -9.3819 -712.639 210 210 210 255
317.646 -9.3819 -708.77 210 210 210 255
317.646 -9.3819 -704.9 210 210 210 255
317.646 -9.3819 -701.028 210 210 210 255
317.646 -9.3819 -697.155 210 210 210 255
317.646 -9.3819 -693.28 210 210 210 255
317.646 -9.3819 -689.404 210 210 210 255
317.646 -9.3819 -685.527 210 210 210 255
317.646 -9.3819 -681.649 210 210 210 255
317.646 -9.3819 -677.769 210 210 210 255
317.646 -9.3819 -673.888 210 210 210 255
317.646 -9.3819 -670.006 210 210 210 255
317.646 -9.3819 -666.123 210 210 210 255
317.646 -9.3819 -662.239 210 210 210 255
317.646 -9.3819 -658.353 210 210 210 255
317.646 -9.3819 -654.466 210 210 210 255
317.646 -9.3819 -650.578 210 210 210 255
317.646 -9.3819 -646.689 210 210 210 255
317.646 -9.3819 -642.799 210 210 210 255
317.646 -9.3819 -638.908 210 210 210 255
317.646 -9.3819 -635.016 210 210 210 255
317.646 -9.3819 -631.123 210 210 210 255
317.646 -9.3819 -627.229 210 210 210 255
317.646 -9.3819 -623.334 210 210 210 255
317.646 -9.3819 -619.438 210 210 210 255
317.646 -9.3819 -615.541 210 210 210 255
317.646 -9.3819 -611.643 210 210 210 255
317.646 -9.3819 -607.744 210 210 210 255
317.646 -9.3819 -603.844 210 210 210 255
317.646 -9.3819 -599.943 210 210 210 255
317.646 -9.3819 -596.042 210 210 210 255
317.646 -9.3819 -592.14 210 210 210 255
317.646 -9.3819 -588.237 210 210 210 255
317.646 -9.3819 -584.333 210 210 210 255
317.646 -9.3819 -580.428 210 210 210 255
317.646 -9.3819 -576.522 210 210 210 255
317.646 -9.3819 -572.616 210 210 210 255
317.646 -9.3819 -568.709 210 210 210 255
317.646 -9.3819 -564.802 210 210 210 255
317.646 -9.3819 -560.893 210 210 210 255
317.646 -9.3819 -556.984 210 210 210 255
317.646 -9.3819 -553.074 210 210 210 255
317.646 -9.3819 -549.164 210 210 210 255
317.646 -9.3819 -545.253 210 210 210 255
317.646 -9.3819 -541.341 210 210 210 255
317.646 -9.3819 -537.429 210 210 210 255
317.646 -9.3819 -533.516 210 210 210 255
317.646 -9.3819 -529.603 210 210 210 255
317.646 -9.3819 -525.689 210 210 210 255
317.646 -9.3819 -521.774 210 210 210 255
317.646 -9.3819 -517.859 210 210 210 255
317.646 -9.3819 -513.944 210 210 210 255
317.646 -9.3819 -510.028 210 210 210 255
317.646 -9.3819 -506.111 210 210 210 255
317.646 -9.3819 -502.194 210 210 210 255
317.646 -9.3819 -498.276 210 210 210 255
317.646 -9.3819 -494.358 210 210 210 255
317.646 -9.3819 -490.44 210 210 210 255
317.646 -9.3819 -486.521 210 210 210 255
317.646 -9.3819 -482.602 210 210 210 255
317.646 -9.3819 -478.682 210 210 210 255
317.646 -9.3819 -474.762 210 210 210 255
317.646 -9.3819 -470.842 210 210 210 255
317.646 -9.3819 -466.921 210 210 210 255
317.646 -9.3819 -463 210 210 210 255
317.646 -9.3819 -459.079 210 210 210 255
317.646 -9.3819 -455.157 210 210 210 255
317.646 -9.3819 -451.235 210 210 210 255
317.646 -9.3819 -447.312 210 210 210 255
317.646 -9.3819 -443.39 210 210 210 255
317.646 -9.3819 -439.467 210 210 210 255
317.646 -9.3819 -435.544 210 210 210 255
317.646 -9.3819 -431.62 210 210 210 255
317.646 -9.3819 -427.696 210 210 210 255
317.646 -9.3819 -423.772 210 210 210 255
317.646 -9.3819 -419.848 210 210 210 255
317.646 -9.3819 -415.924 210 210 210 255
317.646 -9.3819 -411.999 210 210 210 255
317.646 -9.3819 -408.075 210 210 210 255
317.646 -9.3819 -404.15 210 210 210 255
317.646 -9.3819 -400.224 210 210 210 255
317.646 -9.3819 -396.299 210 210 210 255
317.646 -9.3819 -392.374 210 210 210 255
317.646 -9.3819 -388.448 210 210 210 255
317.646 -9.3819 -384.522 210 210 210 255
317.646 -9.3819 -380.597 210 210 210 255
317.646 -9.3819 -376.671 210 210 210 255
317.646 -9.3819 -372.745 210 210 210 255
317.646 -9.3819 -368.819 210 210 210 255
317.646 -9.3819 -364.892 210 210 210 255
317.646 -9.3819 -360.966 210 210 210 255
317.646 -9.3819 -357.04 210 210 210 255
317.646 -9.3819 -353.113 210 210 210 255
317.646 -9.3819 -349.187 210 210 210 255
317.646 -9.3819 -345.26 210 210 210 255
317.646 -9.3819 -341.333 210 210 210 255
317.646 -9.3819 -337.407 210 210 210 255
317.646 -9.3819 -333.48 210 210 210 255
317.646 -9.3819 -329.553 210 210 210 255
317.646 -9.3819 -325.627 210 210 210 255
317.646 -9.3819 -321.7 210 210 210 255
317.646 -9.3819 -317.773 210 210 210 255
317.646 -9.3819 -313.847 210 210 210 255
317.646 -9.3819 -309.92 210 210 210 255
317.646 -9.3819 -305.993 210 210 210 255
317.646 -9.3819 -302.067 210 210 210 255
317.646 -9.3819 -298.14 210 210 210 255
317.646 -9.3819 -294.213 210 210 210 255
317.646 -9.3819 -290.287 210 210 210 255
317.646 -9.3819 -286.36 210 210 210 255
317.646 -9.3819 -282.434 210 210 210 255
317.646 -9.3819 -278.507 210 210 210 255
317.646 -9.3819 -274.581 210 210 210 255
317.646 -9.3819 -270.655 210 210 210 255
317.646 -9.3819 -266.728 210 210 210 255
317.646 -9.3819 -262.802 210 210 210 255
317.646 -9.3819 -258.876 210 210 210 255
317.646 -9.3819 -254.95 210 210 210 255
317.646 -9.3819 -251.024 210 210 210 255
317.646 -9.3819 -247.099 210 210 210 255
317.646 -9.3819 -243.173 210 210 210 255
317.646 -9.3819 -239.247 210 210 210 255
317.646 -9.3819 -235.322 210 210 210 255
317.646 -9.3819 -231.396 210 210 210 255
317.646 -9.3819 -227.471 210 210 210 255
317.646 -9.3819 -223.546 210 210 210 255
317.646 -9.3819 -219.621 210 210 210 255
317.646 -9.3819 -215.696 210 210 210 255
317.646 -9.3819 -211.771 210 210 210 255
317.646 -9.3819 -207.846 210 210 210 255
317.646 -9.3819 -203.921 210 210 210 255
317.646 -9.3819 -199.997 210 210 210 255
317.646 -9.3819 -196.072 210 210 210 255
317.646 -9.3819 -192.148 210 210 210 255
317.646 -9.3819 -188.224 210 210 210 255
317.646 -9.3819 -184.3 210 210 210 255
317.646 -9.3819 -180.376 210 210 210 255
317.646 -9.3819 -176.452 210 210 210 255
317.646 -9.3819 -172.529 210 210 210 255
317.646 -9.3819 -168.605 210 210 210 255
317.646 -9.3819 -164.682 210 210 210 255
317.646 -9.3819 -160.759 210 210 210 255
317.646 -9.3819 -156.836 210 210 210 255
317.646 -9.3819 -152.912 210 210 210 255
317.646 -9.3819 -148.99 210 210 210 255
317.646 -9.3819 -145.067 210 210 210 255
317.646 -9.3819 -141.144 210 210 210 255
317.646 -9.3819 -137.222 210 210 210 255
317.646 -9.3819 -133.3 210 210 210 255
317.646 -9.3819 -129.377 210 210 210 255
317.646 -9.3819 -125.455 210 210 210 255
317.646 -9.3819 -121.533 210 210 210 255
317.646 -9.3819 -117.612 210 210 210 255
317.646 -9.3819 -113.69 210 210 210 255
317.646 -9.3819 -109.768 210 210 210 255
317.646 -9.3819 -105.847 210 210 210 255
317.646 -9.3819 -101.925 210 210 210 255
317.646 -9.3819 -98.0041 210 210 210 255
317.646 -9.3819 -94.0829 210 210 210 255
317.646 -9.3819 -90.1619 210 210 210 255
317.646 -9.3819 -86.241 210 210 210 255
317.646 -9.3819 -82.3202 210 210 210 255
317.646 -9.3819 -78.3994 210 210 210 255
317.646 -9.3819 -74.4788 210 210 210 255
317.646 -9.3819 -70.5582 210 210 210 255
317.646 -9.3819 -66.6379 210 210 210 255
317.646 -9.3819 -62.7175 210 210 210 255
317.646 -9.3819 -58.7972 210 210 210 255
317.646 -9.3819 -54.8771 210 210 210 255
317.646 -9.3819 -50.9568 210 210 210 255
317.646 -9.3819 -47.0369 210 210 210 255
317.646 -9.3819 -43.1169 210 210 210 255
317.646 -9.3819 -39.197 210 210 210 255
317.646 -9.3819 -35.277 210 210 210 255
317.646 -9.3819 -31.3573 210 210 210 255
317.646 -9.3819 -27.4376 210 210 210 255
317.646 -9.3819 -23.5178 210 210 210 255
317.646 -9.3819 -19.5981 210 210 210 255
317.646 -9.3819 -15.6785 210 210 210 255
317.646 -9.3819 -11.7589 210 210 210 255
317.646 -9.3819 -7.83929 210 210 210 255
317.646 -9.3819 -3.91962 210 210 210 255
317.646 -9.3819 0 210 210 210 255
317.545 -6.67657 -778.674 210 210 210 255
317.545 -6.67657 -774.822 210 210 210 255
317.545 -6.67657 -770.968 210 210 210 255
317.545 -6.67657 -767.112 210 210 210 255
317.545 -6.67657 -763.255 210 210 210 255
317.545 -6.67657 -759.396 210 210 210 255
317.545 -6.67657 -755.536 210 210 210 255
317.545 -6.67657 -751.674 210 210 210 255
317.545 -6.67657 -747.811 210 210 210 255
317.545 -6.67657 -743.946 210 210 210 255
317.545 -6.67657 -740.08 210 210 210 255
317.545 -6.67657 -736.212 210 210 210 255
317.545 -6.67657 -732.343 210 210 210 255
317.545 -6.67657 -728.473 210 210 210 255
317.545 -6.67657 -724.601 210 210 210 255
317.545 -6.67657 -720.728 210 210 210 255
317.545 -6.67657 -716.853 210 210 210 255
317.545 -6.67657 -712.978 210 210 210 255
317.545 -6.67657 -709.101 210 210 210 255
317.545 -6.67657 -705.222 210 210 210 255
317.545 -6.67657 -701.343 210 210 210 255
317.545 -6.67657 -697.462 210 210 210 255
317.545 -6.67657 -693.58 210 210 210 255
317.545 -6.67657 -689.697 210 210 210 255
317.545 -6.67657 -685.812 210 210 210 255
317.545 -6.67657 -681.927 210 210 210 255
317.545 -6.67657 -678.04 210 210 210 255
317.545 -6.67657 -674.153 210 210 210 255
317.545 -6.67657 -670.264 210 210 210 255
317.545 -6.67657 -666.374 210 210 210 255
317.545 -6.67657 -662.483 210 210 210 255
317.545 -6.67657 -658.591 210 210 210 255
317.545 -6.67657 -654.698 210 210 210 255
317.545 -6.67657 -650.804 210 210 210 255
317.545 -6.67657 -646.91 210 210 210 255
317.545 -6.67657 -643.014 210 210 210 255
317.545 -6.67657 -639.117 210 210 210 255
317.545 -6.67657 -635.219 210 210 210 255
317.545 -6.67657 -631.32 210 210 210 255
317.545 -6.67657 -627.421 210 210 210 255
317.545 -6.67657 -623.521 210 210 210 255
317.545 -6.67657 -619.619 210 210 210 255
317.545 -6.67657 -615.717 210 210 210 255
317.545 -6.67657 -611.814 210 210 210 255
317.545 -6.67657 -607.911 210 210 210 255
317.545 -6.67657 -604.006 210 210 210 255
317.545 -6.67657 -600.101 210 210 210 255
317.545 -6.67657 -596.195 210 210 210 255
317.545 -6.67657 -592.288 210 210 210 255
317.545 -6.67657 -588.381 210 210 210 255
317.545 -6.67657 -584.472 210 210 210 255
317.545 -6.67657 -580.564 210 210 210 255
317.545 -6.67657 -576.654 210 210 210 255
317.545 -6.67657 -572.744 210 210 210 255
317.545 -6.67657 -568.833 210 210 210 255
317.545 -6.67657 -564.922 210 210 210 255
317.545 -6.67657 -561.009 210 210 210 255
317.545 -6.67657 -557.097 210 210 210 255
317.545 -6.67657 -553.183 210 210 210 255
317.545 -6.67657 -549.27 210 210 210 255
317.545 -6.67657 -545.355 210 210 210 255
317.545 -6.67657 -541.44 210 210 210 255
317.545 -6.67657 -537.525 210 210 210 255
317.545 -6.67657 -533.609 210 210 210 255
317.545 -6.67657 -529.692 210 210 210 255
317.545 -6.67657 -525.775 210 210 210 255
317.545 -6.67657 -521.858 210 210 210 255
317.545 -6.67657 -517.94 210 210 210 255
317.545 -6.67657 -514.022 210 210 210 255
317.545 -6.67657 -510.103 210 210 210 255
317.545 -6.67657 -506.184 210 210 210 255
317.545 -6.67657 -502.264 210 210 210 255
317.545 -6.67657 -498.344 210 210 210 255
317.545 -6.67657 -494.424 210 210 210 255
317.545 -6.67657 -490.503 210 210 210 255
317.545 -6.67657 -486.582 210 210 210 255
317.545 -6.67657 -482.66 210 210 210 255
317.545 -6.67657 -478.738 210 210 210 255
317.545 -6.67657 -474.816 210 210 210 255
317.545 -6.67657 -470.894 210 210 210 255
317.545 -6.67657 -466.971 210 210 210 255
317.545 -6.67657 -463.048 210 210 210 255
317.545 -6.67657 -459.125 210 210 210 255
317.545 -6.67657 -455.201 210 210 210 255
317.545 -6.67657 -451.277 210 210 210 255
317.545 -6.67657 -447.353 210 210 210 255
317.545 -6.67657 -443.429 210 210 210 255
317.545 -6.67657 -439.504 210 210 210 255
317.545 -6.67657 -435.579 210 210 210 255
317.545 -6.67657 -431.654 210 210 210 255
317.545 -6.67657 -427.729 210 210 210 255
317.545 -6.67657 -423.804 210 210 210 255
317.545 -6.67657 -419.878 210 210 210 255
317.545 -6.67657 -415.953 210 210 210 255
317.545 -6.67657 -412.027 210 210 210 255
317.545 -6.67657 -408.101 210 210 210 255
317.545 -6.67657 -404.175 210 210 210 255
317.545 -6.67657 -400.248 210 210 210 255
317.545 -6.67657 -396.322 210 210 210 255
317.545 -6.67657 -392.395 210 210 210 255
317.545 -6.67657 -388.469 210 210 210 255
317.545 -6.67657 -384.542 210 210 210 255
317.545 -6.67657 -380.615 210 210 210 255
317.545 -6.67657 -376.688 210 210 210 255
317.545 -6.67657 -372.762 210 210 210 255
317.545 -6.67657 -368.835 210 210 210 255
317.545 -6.67657 -364.907 210 210 210 255
317.545 -6.67657 -360.98 210 210 210 255
317.545 -6.67657 -357.053 210 210 210 255
317.545 -6.67657 -353.126 210 210 210 255
317.545 -6.67657 -349.199 210 210 210 255
317.545 -6.67657 -345.271 210 210 210 255
317.545 -6.67657 -341.344 210 210 210 255
317.545 -6.67657 -337.417 210 210 210 255
317.545 -6.67657 -333.49 210 210 210 255
317.545 -6.67657 -329.562 210 210 210 255
317.545 -6.67657 -325.635 210 210 210 255
317.545 -6.67657 -321.708 210 210 210 255
317.545 -6.67657 -317.781 210 210 210 255
317.545 -6.67657 -313.853 210 210 210 255
317.545 -6.67657 -309.926 210 210 210 255
317.545 -6.67657 -305.999 210 210 210 255
317.545 -6.67657 -302.072 210 210 210 255
317.545 -6.67657 -298.145 210 210 210 255
317.545 -6.67657 -294.218 210 210 210 255
317.545 -6.67657 -290.291 210 210 210 255
317.545 -6.67657 -286.364 210 210 210 255
317.545 -6.67657 -282.437 210 210 210 255
317.545 -6.67657 -278.511 210 210 210 255
317.545 -6.67657 -274.584 210 210 210 255
317.545 -6.67657 -270.658 210 210 210 255
317.545 -6.67657 -266.731 210 210 210 255
317.545 -6.67657 -262.805 210 210 210 255
317.545 -6.67657 -258.878 210 210 210 255
317.545 -6.67657 -254.952 210 210 210 255
317.545 -6.67657 -251.026 210 210 210 255
317.545 -6.67657 -247.1 210 210 210 255
317.545 -6.67657 -243.174 210 210 210 255
317.545 -6.67657 -239.248 210 210 210 255
317.545 -6.67657 -235.323 210 210 210 255
317.545 -6.67657 -231.397 210 210 210 255
317.545 -6.67657 -227.472 210 210 210 255
317.545 -6.67657 -223.546 210 210 210 255
317.545 -6.67657 -219.621 210 210 210 255
317.545 -6.67657 -215.696 210 210 210 255
317.545 -6.67657 -211.771 210 210 210 255
317.545 -6.67657 -207.846 210 210 210 255
317.545 -6.67657 -203.922 210 210 210 255
317.545 -6.67657 -199.997 210 210 210 255
317.545 -6.67657 -196.072 210 210 210 255
317.545 -6.67657 -192.148 210 210 210 255
317.545 -6.67657 -188.224 210 210 210 255
317.545 -6.67657 -184.3 210 210 210 255
317.545 -6.67657 -180.376 210 210 210 255
317.545 -6.67657 -176.452 210 210 210 255
317.545 -6.67657 -172.528 210 210 210 255
317.545 -6.67657 -168.605 210 210 210 255
317.545 -6.67657 -164.682 210 210 210 255
317.545 -6.67657 -160.758 210 210 210 255
317.545 -6.67657 -156.835 210 210 210 255
317.545 -6.67657 -152.912 210 210 210 255
317.545 -6.67657 -148.989 210 210 210 255
317.545 -6.67657 -145.067 210 210 210 255
317.545 -6.67657 -141.144 210 210 210 255
317.545 -6.67657 -137.222 210 210 210 255
317.545 -6.67657 -133.299 210 210 210 255
317.545 -6.67657 -129.377 210 210 210 255
317.545 -6.67657 -125.455 210 210 210 255
317.545 -6.67657 -121.533 210 210 210 255
317.545 -6.67657 -117.611 210 210 210 255
317.545 -6.67657 -113.69 210 210 210 255
317.545 -6.67657 -109.768 210 210 210 255
317.545 -6.67657 -105.847 210 210 210 255
317.545 -6.67657 -101.925 210 210 210 255
317.545 -6.67657 -98.004 210 210 210 255
317.545 -6.67657 -94.0828 210 210 210 255
317.545 -6.67657 -90.1617 210 210 210 255
317.545 -6.67657 -86.2409 210 210 210 255
317.545 -6.67657 -82.3201 210 210 210 255
317.545 -6.67657 -78.3994 210 210 210 255
317.545 -6.67657 -74.4788 210 210 210 255
317.545 -6.67657 -70.5582 210 210 210 255
317.545 -6.67657 -66.6378 210 210 210 255
317.545 -6.67657 -62.7174 210 210 210 255
317.545 -6.67657 -58.7972 210 210 210 255
317.545 -6.67657 -54.8771 210 210 210 255
317.545 -6.67657 -50.9568 210 210 210 255
317.545 -6.67657 -47.0369 210 210 210 255
317.545 -6.67657 -43.1168 210 210 210 255
317.545 -6.67657 -39.197 210 210 210 255
317.545 -6.67657 -35.2772 210 210 210 255
317.545 -6.67657 -31.3572 210 210 210 255
317.545 -6.67657 -27.4376 210 210 210 255
317.545 -6.67657 -23.5179 210 210 210 255
317.545 -6.67657 -19.5982 210 210 210 255
317.545 -6.67657 -15.6784 210 210 210 255
317.545 -6.67657 -11.7588 210 210 210 255
317.545 -6.67657 -7.83917 210 210 210 255
317.545 -6.67657 -3.91968 210 210 210 255
317.545 -6.67657 0 210 210 210 255
317.434 -3.97467 -779.181 210 210 210 255
317.434 -3.97467 -775.318 210 210 210 255
317.434 -3.97467 -771.453 210 210 210 255
317.434 -3.97467 -767.587 210 210 210 255
317.434 -3.97467 -763.719 210 210 210 255
317.434 -3.97467 -759.85 210 210 210 255
317.434 -3.97467 -755.98 210 210 210 255
317.434 -3.97467 -752.108 210 210 210 255
317.434 -3.97467 -748.235 210 210 210 255
317.434 -3.97467 -744.361 210 210 210 255
317.434 -3.97467 -740.485 210 210 210 255
317.434 -3.97467 -736.609 210 210 210 255
317.434 -3.97467 -732.73 210 210 210 255
317.434 -3.97467 -728.851 210 210 210 255
317.434 -3.97467 -724.971 210 210 210 255
317.434 -3.97467 -721.089 210 210 210 255
317.434 -3.97467 -717.206 210 210 210 255
317.434 -3.97467 -713.322 210 210 210 255
317.434 -3.97467 -709.437 210 210 210 255
317.434 -3.97467 -705.55 210 210 210 255
317.434 -3.97467 -701.663 210 210 210 255
317.434 -3.97467 -697.774 210 210 210 255
317.434 -3.97467 -693.885 210 210 210 255
317.434 -3.97467 -689.994 210 210 210 255
317.434 -3.97467 -686.103 210 210 210 255
317.434 -3.97467 -682.21 210 210 210 255
317.434 -3.97467 -678.316 210 210 210 255
317.434 -3.97467 -674.422 210 210 210 255
317.434 -3.97467 -670.526 210 210 210 255
317.434 -3.97467 -666.63 210 210 210 255
317.434 -3.97467 -662.732 210 210 210 255
317.434 -3.97467 -658.834 210 210 210 255
317.434 -3.97467 -654.935 210 210 210 255
317.434 -3.97467 -651.034 210 210 210 255
317.434 -3.97467 -647.134 210 210 210 255
317.434 -3.97467 -643.232 210 210 210 255
317.434 -3.97467 -639.329 210 210 210 255
317.434 -3.97467 -635.426 210 210 210 255
317.434 -3.97467 -631.521 210 210 210 255
317.434 -3.97467 -627.616 210 210 210 255
317.434 -3.97467 -623.711 210 210 210 255
317.434 -3.97467 -619.804 210 210 210 255
317.434 -3.97467 -615.897 210 210 210 255
317.434 -3.97467 -611.989 210 210 210 255
317.434 -3.97467 -608.081 210 210 210 255
317.434 -3.97467 -604.171 210 210 210 255
317.434 -3.97467 -600.261 210 210 210 255
317.434 -3.97467 -596.351 210 210 210 255
317.434 -3.97467 -592.439 210 210 210 255
317.434 -3.97467 -588.527 210 210 210 255
317.434 -3.97467 -584.615 210 210 210 255
317.434 -3.97467 -580.702 210 210 210 255
317.434 -3.97467 -576.788 210 210 210 255
317.434 -3.97467 -572.874 210 210 210 255
317.434 -3.97467 -568.959 210 210 210 255
317.434 -3.97467 -565.044 210 210 210 255
317.434 -3.97467 -561.128 210 210 210 255
317.434 -3.97467 -557.212 210 210 210 255
317.434 -3.97467 -553.295 210 210 210 255
317.434 -3.97467 -549.377 210 210 210 255
317.434 -3.97467 -545.459 210 210 210 255
317.434 -3.97467 -541.541 210 210 210 255
317.434 -3.97467 -537.622 210 210 210 255
317.434 -3.97467 -533.703 210 210 210 255
317.434 -3.97467 -529.784 210 210 210 255
317.434 -3.97467 -525.864 210 210 210 255
317.434 -3.97467 -521.943 210 210 210 255
317.434 -3.97467 -518.022 210 210 210 255
317.434 -3.97467 -514.101 210 210 210 255
317.434 -3.97467 -510.18 210 210 210 255
317.434 -3.97467 -506.258 210 210 210 255
317.434 -3.97467 -502.336 210 210 210 255
317.434 -3.97467 -498.413 210 210 210 255
317.434 -3.97467 -494.49 210 210 210 255
317.434 -3.97467 -490.567 210 210 210 255
317.434 -3.97467 -486.644 210 210 210 255
317.434 -3.97467 -482.72 210 210 210 255
317.434 -3.97467 -478.796 210 210 210 255
317.434 -3.97467 -474.871 210 210 210 255
317.434 -3.97467 -470.947 210 210 210 255
317.434 -3.97467 -467.022 210 210 210 255
317.434 -3.97467 -463.097 210 210 210 255
317.434 -3.97467 -459.172 210 210 210 255
317.434 -3.97467 -455.246 210 210 210 255
317.434 -3.97467 -451.321 210 210 210 255
317.434 -3.97467 -447.395 210 210 210 255
317.434 -3.97467 -443.469 210 210 210 255
317.434 -3.97467 -439.543 210 210 210 255
317.434 -3.97467 -435.616 210 210 210 255
317.434 -3.97467 -431.69 210 210 210 255
317.434 -3.97467 -427.763 210 210 210 255
317.434 -3.97467 -423.836 210 210 210 255
317.434 -3.97467 -419.909 210 210 210 255
317.434 -3.97467 -415.982 210 210 210 255
317.434 -3.97467 -412.055 210 210 210 255
317.434 -3.97467 -408.128 210 210 210 255
317.434 -3.97467 -404.2 210 210 210 255
317.434 -3.97467 -400.273 210 210 210 255
317.434 -3.97467 -396.345 210 210 210 255
317.434 -3.97467 -392.418 210 210 210 255
317.434 -3.97467 -388.49 210 210 210 255
317.434 -3.97467 -384.562 210 210 210 255
317.434 -3.97467 -380.634 210 210 210 255
317.434 -3.97467 -376.707 210 210 210 255
317.434 -3.97467 -372.779 210 210 210 255
317.434 -3.97467 -368.851 210 210 210 255
317.434 -3.97467 -364.923 210 210 210 255
317.434 -3.97467 -360.995 210 210 210 255
317.434 -3.97467 -357.067 210 210 210 255
317.434 -3.97467 -353.139 210 210 210 255
317.434 -3.97467 -349.211 210 210 210 255
317.434 -3.97467 -345.283 210 210 210 255
317.434 -3.97467 -341.355 210 210 210 255
317.434 -3.97467 -337.427 210 210 210 255
317.434 -3.97467 -333.499 210 210 210 255
317.434 -3.97467 -329.571 210 210 210 255
317.434 -3.97467 -325.644 210 210 210 255
317.434 -3.97467 -321.716 210 210 210 255
317.434 -3.97467 -317.788 210 210 210 255
317.434 -3.97467 -313.86 210 210 210 255
317.434 -3.97467 -309.933 210 210 210 255
317.434 -3.97467 -306.005 210 210 210 255
317.434 -3.97467 -302.078 210 210 210 255
