ply
format ascii 1.0
element vertex 1150
property float x
property float y
property float z
property uchar red
property uchar green
property uchar blue
property uchar alpha
end_header
271.373 -66.1875 -646.999 210 210 210 255
271.373 -66.1875 -643.893 210 210 210 255
271.373 -66.1875 -640.773 210 210 210 255
271.373 -66.1875 -637.639 210 210 210 255
271.373 -66.1875 -634.492 210 210 210 255
271.373 -66.1875 -631.33 210 210 210 255
271.373 -66.1875 -628.156 210 210 210 255
271.373 -66.1875 -624.968 210 210 210 255
271.373 -66.1875 -621.767 210 210 210 255
271.373 -66.1875 -618.553 210 210 210 255
271.373 -66.1875 -615.326 210 210 210 255
271.373 -66.1875 -612.087 210 210 210 255
271.373 -66.1875 -608.835 210 210 210 255
271.373 -66.1875 -605.571 210 210 210 255
271.373 -66.1875 -602.295 210 210 210 255
271.373 -66.1875 -599.006 210 210 210 255
271.373 -66.1875 -595.706 210 210 210 255
271.373 -66.1875 -592.393 210 210 210 255
271.373 -66.1875 -589.07 210 210 210 255
271.373 -66.1875 -585.734 210 210 210 255
271.373 -66.1875 -582.388 210 210 210 255
271.373 -66.1875 -579.03 210 210 210 255
271.373 -66.1875 -575.661 210 210 210 255
271.373 -66.1875 -572.282 210 210 210 255
271.373 -66.1875 -568.892 210 210 210 255
271.373 -66.1875 -565.491 210 210 210 255
271.373 -66.1875 -562.079 210 210 210 255
271.373 -66.1875 -558.657 210 210 210 255
271.373 -66.1875 -555.225 210 210 210 255
271.373 -66.1875 -551.783 210 210 210 255
271.373 -66.1875 -548.331 210 210 210 255
271.373 -66.1875 -544.87 210 210 210 255
271.373 -66.1875 -541.398 210 210 210 255
271.373 -66.1875 -537.918 210 210 210 255
271.373 -66.1875 -534.427 210 210 210 255
271.373 -66.1875 -530.928 210 210 210 255
271.373 -66.1875 -527.419 210 210 210 255
271.373 -66.1875 -523.902 210 210 210 255
271.373 -66.1875 -520.375 210 210 210 255
271.373 -66.1875 -516.84 210 210 210 255
271.373 -66.1875 -513.297 210 210 210 255
271.373 -66.1875 -509.744 210 210 210 255
271.373 -66.1875 -506.184 210 210 210 255
271.373 -66.1875 -502.615 210 210 210 255
271.373 -66.1875 -499.038 210 210 210 255
271.373 -66.1875 -495.453 210 210 210 255
271.373 -66.1875 -491.861 210 210 210 255
271.373 -66.1875 -488.26 210 210 210 255
271.373 -66.1875 -484.652 210 210 210 255
271.373 -66.1875 -481.036 210 210 210 255
271.373 -66.1875 -477.414 210 210 210 255
271.373 -66.1875 -473.784 210 210 210 255
271.373 -66.1875 -470.146 210 210 210 255
271.373 -66.1875 -466.502 210 210 210 255
271.373 -66.1875 -462.851 210 210 210 255
271.373 -66.1875 -459.193 210 210 210 255
271.373 -66.1875 -455.528 210 210 210 255
271.373 -66.1875 -451.857 210 210 210 255
271.373 -66.1875 -448.179 210 210 210 255
271.373 -66.1875 -444.495 210 210 210 255
271.373 -66.1875 -440.805 210 210 210 255
271.373 -66.1875 -437.109 210 210 210 255
271.373 -66.1875 -433.406 210 210 210 255
271.373 -66.1875 -429.698 210 210 210 255
271.373 -66.1875 -425.984 210 210 210 255
271.373 -66.1875 -422.264 210 210 210 255
271.373 -66.1875 -418.539 210 210 210 255
271.373 -66.1875 -414.808 210 210 210 255
271.373 -66.1875 -411.072 210 210 210 255
271.373 -66.1875 -407.33 210 210 210 255
271.373 -66.1875 -403.583 210 210 210 255
271.373 -66.1875 -399.832 210 210 210 255
271.373 -66.1875 -396.075 210 210 210 255
271.373 -66.1875 -392.313 210 210 210 255
271.373 -66.1875 -388.547 210 210 210 255
271.373 -66.1875 -384.776 210 210 210 255
271.373 -66.1875 -381 210 210 210 255
271.373 -66.1875 -377.22 210 210 210 255
271.373 -66.1875 -373.436 210 210 210 255
271.373 -66.1875 -369.647 210 210 210 255
271.373 -66.1875 -365.854 210 210 210 255
271.373 -66.1875 -362.057 210 210 210 255
271.373 -66.1875 -358.256 210 210 210 255
271.373 -66.1875 -354.451 210 210 210 255
271.373 -66.1875 -350.641 210 210 210 255
271.373 -66.1875 -346.829 210 210 210 255
271.373 -66.1875 -343.013 210 210 210 255
271.373 -66.1875 -339.192 210 210 210 255
271.373 -66.1875 -335.369 210 210 210 255
271.373 -66.1875 -331.542 210 210 210 255
271.373 -66.1875 -327.712 210 210 210 255
271.373 -66.1875 -323.879 210 210 210 255
271.373 -66.1875 -320.042 210 210 210 255
271.373 -66.1875 -316.202 210 210 210 255
271.373 -66.1875 -312.36 210 210 210 255
271.373 -66.1875 -308.514 210 210 210 255
271.373 -66.1875 -304.666 210 210 210 255
271.373 -66.1875 -300.814 210 210 210 255
271.373 -66.1875 -296.96 210 210 210 255
271.373 -66.1875 -293.104 210 210 210 255
271.373 -66.1875 -289.245 210 210 210 255
271.373 -66.1875 -285.383 210 210 210 255
271.373 -66.1875 -281.519 210 210 210 255
271.373 -66.1875 -277.653 210 210 210 255
271.373 -66.1875 -273.784 210 210 210 255
271.373 -66.1875 -269.914 210 210 210 255
271.373 -66.1875 -266.041 210 210 210 255
271.373 -66.1875 -262.166 210 210 210 255
271.373 -66.1875 -258.289 210 210 210 255
271.373 -66.1875 -254.411 210 210 210 255
271.373 -66.1875 -250.53 210 210 210 255
271.373 -66.1875 -246.648 210 210 210 255
271.373 -66.1875 -242.764 210 210 210 255
271.373 -66.1875 -238.878 210 210 210 255
271.373 -66.1875 -234.991 210 210 210 255
271.373 -66.1875 -231.103 210 210 210 255
271.373 -66.1875 -227.213 210 210 210 255
271.373 -66.1875 -223.321 210 210 210 255
271.373 -66.1875 -219.428 210 210 210 255
271.373 -66.1875 -215.534 210 210 210 255
271.373 -66.1875 -211.638 210 210 210 255
271.373 -66.1875 -207.742 210 210 210 255
271.373 -66.1875 -203.844 210 210 210 255
271.373 -66.1875 -199.946 210 210 210 255
271.373 -66.1875 -196.046 210 210 210 255
271.373 -66.1875 -192.145 210 210 210 255
271.373 -66.1875 -188.244 210 210 210 255
271.373 -66.1875 -184.341 210 210 210 255
271.373 -66.1875 -180.438 210 210 210 255
271.373 -66.1875 -176.534 210 210 210 255
271.373 -66.1875 -172.63 210 210 210 255
271.373 -66.1875 -168.725 210 210 210 255
271.373 -66.1875 -164.819 210 210 210 255
271.373 -66.1875 -160.913 210 210 210 255
271.373 -66.1875 -157.006 210 210 210 255
271.373 -66.1875 -153.099 210 210 210 255
271.373 -66.1875 -149.191 210 210 210 255
271.373 -66.1875 -145.283 210 210 210 255
271.373 -66.1875 -141.374 210 210 210 255
271.373 -66.1875 -137.466 210 210 210 255
271.373 -66.1875 -133.557 210 210 210 255
271.373 -66.1875 -129.647 210 210 210 255
271.373 -66.1875 -125.738 210 210 210 255
271.373 -66.1875 -121.829 210 210 210 255
271.373 -66.1875 -117.919 210 210 210 255
271.373 -66.1875 -114.01 210 210 210 255
271.373 -66.1875 -110.1 210 210 210 255
271.373 -66.1875 -106.191 210 210 210 255
271.373 -66.1875 -102.281 210 210 210 255
271.373 -66.1875 -98.3716 210 210 210 255
271.373 -66.1875 -94.4622 210 210 210 255
271.373 -66.1875 -90.553 210 210 210 255
271.373 -66.1875 -86.6439 210 210 210 255
271.373 -66.1875 -82.7351 210 210 210 255
271.373 -66.1875 -78.8266 210 210 210 255
271.373 -66.1875 -74.9182 210 210 210 255
271.373 -66.1875 -71.0101 210 210 210 255
271.373 -66.1875 -67.1024 210 210 210 255
271.373 -66.1875 -63.1948 210 210 210 255
271.373 -66.1875 -59.2878 210 210 210 255
271.373 -66.1875 -55.381 210 210 210 255
271.373 -66.1875 -51.4747 210 210 210 255
271.373 -66.1875 -47.5688 210 210 210 255
271.373 -66.1875 -43.6633 210 210 210 255
271.373 -66.1875 -39.7582 210 210 210 255
271.373 -66.1875 -35.8538 210 210 210 255
271.373 -66.1875 -31.9499 210 210 210 255
271.373 -66.1875 -28.0463 210 210 210 255
271.373 -66.1875 -24.1434 210 210 210 255
271.373 -66.1875 -20.241 210 210 210 255
271.373 -66.1875 -16.3389 210 210 210 255
271.373 -66.1875 -12.4377 210 210 210 255
271.373 -66.1875 -8.53699 210 210 210 255
271.373 -66.1875 -4.63684 210 210 210 255
271.373 -66.1875 -0.737305 210 210 210 255
270.98 -63.4953 -719.219 210 210 210 255
270.98 -63.4953 -716.527 210 210 210 255
270.98 -63.4953 -713.816 210 210 210 255
270.98 -63.4953 -711.086 210 210 210 255
270.98 -63.4953 -708.339 210 210 210 255
270.98 -63.4953 -705.574 210 210 210 255
270.98 -63.4953 -702.791 210 210 210 255
270.98 -63.4953 -699.99 210 210 210 255
270.98 -63.4953 -697.172 210 210 210 255
270.98 -63.4953 -694.337 210 210 210 255
270.98 -63.4953 -691.485 210 210 210 255
270.98 -63.4953 -688.616 210 210 210 255
270.98 -63.4953 -685.731 210 210 210 255
270.98 -63.4953 -682.829 210 210 210 255
270.98 -63.4953 -679.91 210 210 210 255
270.98 -63.4953 -676.976 210 210 210 255
270.98 -63.4953 -674.025 210 210 210 255
270.98 -63.4953 -671.059 210 210 210 255
270.98 -63.4953 -668.077 210 210 210 255
270.98 -63.4953 -665.079 210 210 210 255
270.98 -63.4953 -662.067 210 210 210 255
270.98 -63.4953 -659.039 210 210 210 255
270.98 -63.4953 -655.996 210 210 210 255
270.98 -63.4953 -652.938 210 210 210 255
270.98 -63.4953 -649.866 210 210 210 255
270.98 -63.4953 -646.779 210 210 210 255
270.98 -63.4953 -643.678 210 210 210 255
270.98 -63.4953 -640.563 210 210 210 255
270.98 -63.4953 -637.434 210 210 210 255
270.98 -63.4953 -634.291 210 210 210 255
270.98 -63.4953 -631.134 210 210 210 255
270.98 -63.4953 -627.964 210 210 210 255
270.98 -63.4953 -624.78 210 210 210 255
270.98 -63.4953 -621.583 210 210 210 255
270.98 -63.4953 -618.374 210 210 210 255
270.98 -63.4953 -615.151 210 210 210 255
270.98 -63.4953 -611.916 210 210 210 255
270.98 -63.4953 -608.667 210 210 210 255
270.98 -63.4953 -605.407 210 210 210 255
270.98 -63.4953 -602.134 210 210 210 255
270.98 -63.4953 -598.849 210 210 210 255
270.98 -63.4953 -595.553 210 210 210 255
270.98 -63.4953 -592.244 210 210 210 255
270.98 -63.4953 -588.924 210 210 210 255
270.98 -63.4953 -585.592 210 210 210 255
270.98 -63.4953 -582.249 210 210 210 255
270.98 -63.4953 -578.894 210 210 210 255
270.98 -63.4953 -575.529 210 210 210 255
270.98 -63.4953 -572.152 210 210 210 255
270.98 -63.4953 -568.765 210 210 210 255
270.98 -63.4953 -565.367 210 210 210 255
270.98 -63.4953 -561.958 210 210 210 255
270.98 -63.4953 -558.539 210 210 210 255
270.98 -63.4953 -555.11 210 210 210 255
270.98 -63.4953 -551.671 210 210 210 255
270.98 -63.4953 -548.221 210 210 210 255
270.98 -63.4953 -544.762 210 210 210 255
270.98 -63.4953 -541.293 210 210 210 255
270.98 -63.4953 -537.815 210 210 210 255
270.98 -63.4953 -534.327 210 210 210 255
270.98 -63.4953 -530.83 210 210 210 255
270.98 -63.4953 -527.323 210 210 210 255
270.98 -63.4953 -523.808 210 210 210 255
270.98 -63.4953 -520.284 210 210 210 255
270.98 -63.4953 -516.751 210 210 210 255
270.98 -63.4953 -513.209 210 210 210 255
270.98 -63.4953 -509.659 210 210 210 255
270.98 -63.4953 -506.1 210 210 210 255
270.98 -63.4953 -502.533 210 210 210 255
270.98 -63.4953 -498.958 210 210 210 255
270.98 -63.4953 -495.375 210 210 210 255
270.98 -63.4953 -491.784 210 210 210 255
270.98 -63.4953 -488.186 210 210 210 255
270.98 -63.4953 -484.579 210 210 210 255
270.98 -63.4953 -480.965 210 210 210 255
270.98 -63.4953 -477.344 210 210 210 255
270.98 -63.4953 -473.715 210 210 210 255
270.98 -63.4953 -470.079 210 210 210 255
270.98 -63.4953 -466.436 210 210 210 255
270.98 -63.4953 -462.787 210 210 210 255
270.98 -63.4953 -459.13 210 210 210 255
270.98 -63.4953 -455.467 210 210 210 255
270.98 -63.4953 -451.797 210 210 210 255
270.98 -63.4953 -448.12 210 210 210 255
270.98 -63.4953 -444.437 210 210 210 255
270.98 -63.4953 -440.748 210 210 210 255
270.98 -63.4953 -437.053 210 210 210 255
270.98 -63.4953 -433.352 210 210 210 255
270.98 -63.4953 -429.644 210 210 210 255
270.98 -63.4953 -425.931 210 210 210 255
270.98 -63.4953 -422.212 210 210 210 255
270.98 -63.4953 -418.488 210 210 210 255
270.98 -63.4953 -414.758 210 210 210 255
270.98 -63.4953 -411.023 210 210 210 255
270.98 -63.4953 -407.282 210 210 210 255
270.98 -63.4953 -403.536 210 210 210 255
270.98 -63.4953 -399.785 210 210 210 255
270.98 -63.4953 -396.029 210 210 210 255
270.98 -63.4953 -392.268 210 210 210 255
270.98 -63.4953 -388.502 210 210 210 255
270.98 -63.4953 -384.732 210 210 210 255
270.98 -63.4953 -380.957 210 210 210 255
270.98 -63.4953 -377.177 210 210 210 255
270.98 -63.4953 -373.393 210 210 210 255
270.98 -63.4953 -369.605 210 210 210 255
270.98 -63.4953 -365.813 210 210 210 255
270.98 -63.4953 -362.016 210 210 210 255
270.98 -63.4953 -358.215 210 210 210 255
270.98 -63.4953 -354.41 210 210 210 255
270.98 -63.4953 -350.602 210 210 210 255
270.98 -63.4953 -346.79 210 210 210 255
270.98 -63.4953 -342.974 210 210 210 255
270.98 -63.4953 -339.154 210 210 210 255
270.98 -63.4953 -335.331 210 210 210 255
270.98 -63.4953 -331.504 210 210 210 255
270.98 -63.4953 -327.674 210 210 210 255
270.98 -63.4953 -323.841 210 210 210 255
270.98 -63.4953 -320.005 210 210 210 255
270.98 -63.4953 -316.165 210 210 210 255
270.98 -63.4953 -312.323 210 210 210 255
270.98 -63.4953 -308.478 210 210 210 255
270.98 -63.4953 -304.629 210 210 210 255
270.98 -63.4953 -300.778 210 210 210 255
270.98 -63.4953 -296.925 210 210 210 255
270.98 -63.4953 -293.068 210 210 210 255
270.98 -63.4953 -289.209 210 210 210 255
270.98 -63.4953 -285.348 210 210 210 255
270.98 -63.4953 -281.484 210 210 210 255
270.98 -63.4953 -277.618 210 210 210 255
270.98 -63.4953 -273.75 210 210 210 255
270.98 -63.4953 -269.879 210 210 210 255
270.98 -63.4953 -266.006 210 210 210 255
270.98 -63.4953 -262.132 210 210 210 255
270.98 -63.4953 -258.255 210 210 210 255
270.98 -63.4953 -254.377 210 210 210 255
270.98 -63.4953 -250.496 210 210 210 255
270.98 -63.4953 -246.614 210 210 210 255
270.98 -63.4953 -242.73 210 210 210 255
270.98 -63.4953 -238.845 210 210 210 255
270.98 -63.4953 -234.958 210 210 210 255
270.98 -63.4953 -231.069 210 210 210 255
270.98 -63.4953 -227.179 210 210 210 255
270.98 -63.4953 -223.287 210 210 210 255
270.98 -63.4953 -219.395 210 210 210 255
270.98 -63.4953 -215.501 210 210 210 255
270.98 -63.4953 -211.605 210 210 210 255
270.98 -63.4953 -207.709 210 210 210 255
270.98 -63.4953 -203.811 210 210 210 255
270.98 -63.4953 -199.913 210 210 210 255
270.98 -63.4953 -196.013 210 210 210 255
270.98 -63.4953 -192.113 210 210 210 255
270.98 -63.4953 -188.211 210 210 210 255
270.98 -63.4953 -184.309 210 210 210 255
270.98 -63.4953 -180.406 210 210 210 255
270.98 -63.4953 -176.502 210 210 210 255
270.98 -63.4953 -172.598 210 210 210 255
270.98 -63.4953 -168.693 210 210 210 255
270.98 -63.4953 -164.787 210 210 210 255
270.98 -63.4953 -160.881 210 210 210 255
270.98 -63.4953 -156.974 210 210 210 255
270.98 -63.4953 -153.067 210 210 210 255
270.98 -63.4953 -149.16 210 210 210 255
270.98 -63.4953 -145.252 210 210 210 255
270.98 -63.4953 -141.344 210 210 210 255
270.98 -63.4953 -137.436 210 210 210 255
270.98 -63.4953 -133.527 210 210 210 255
270.98 -63.4953 -129.618 210 210 210 255
270.98 -63.4953 -125.709 210 210 210 255
270.98 -63.4953 -121.8 210 210 210 255
270.98 -63.4953 -117.891 210 210 210 255
270.98 -63.4953 -113.981 210 210 210 255
270.98 -63.4953 -110.072 210 210 210 255
270.98 -63.4953 -106.163 210 210 210 255
270.98 -63.4953 -102.254 210 210 210 255
270.98 -63.4953 -98.3447 210 210 210 255
270.98 -63.4953 -94.436 210 210 210 255
270.98 -63.4953 -90.5272 210 210 210 255
270.98 -63.4953 -86.6186 210 210 210 255
270.98 -63.4953 -82.7103 210 210 210 255
270.98 -63.4953 -78.8022 210 210 210 255
270.98 -63.4953 -74.8945 210 210 210 255
270.98 -63.4953 -70.9871 210 210 210 255
270.98 -63.4953 -67.0798 210 210 210 255
270.98 -63.4953 -63.1731 210 210 210 255
270.98 -63.4953 -59.2665 210 210 210 255
270.98 -63.4953 -55.3605 210 210 210 255
270.98 -63.4953 -51.4549 210 210 210 255
270.98 -63.4953 -47.5498 210 210 210 255
270.98 -63.4953 -43.6451 210 210 210 255
270.98 -63.4953 -39.7408 210 210 210 255
270.98 -63.4953 -35.8371 210 210 210 255
270.98 -63.4953 -31.9342 210 210 210 255
270.98 -63.4953 -28.0314 210 210 210 255
270.98 -63.4953 -24.1294 210 210 210 255
270.98 -63.4953 -20.2278 210 210 210 255
270.98 -63.4953 -16.3269 210 210 210 255
270.98 -63.4953 -12.4267 210 210 210 255
270.98 -63.4953 -8.52692 210 210 210 255
270.98 -63.4953 -4.62793 210 210 210 255
270.98 -63.4953 -0.729492 210 210 210 255
270.571 -60.8054 -718.861 210 210 210 255
270.571 -60.8054 -716.176 210 210 210 255
270.571 -60.8054 -713.471 210 210 210 255
270.571 -60.8054 -710.749 210 210 210 255
270.571 -60.8054 -708.008 210 210 210 255
270.571 -60.8054 -705.25 210 210 210 255
270.571 -60.8054 -702.473 210 210 210 255
270.571 -60.8054 -699.679 210 210 210 255
270.571 -60.8054 -696.867 210 210 210 255
270.571 -60.8054 -694.039 210 210 210 255
270.571 -60.8054 -691.193 210 210 210 255
270.571 -60.8054 -688.33 210 210 210 255
270.571 -60.8054 -685.45 210 210 210 255
270.571 -60.8054 -682.554 210 210 210 255
270.571 -60.8054 -679.641 210 210 210 255
270.571 -60.8054 -676.712 210 210 210 255
270.571 -60.8054 -673.767 210 210 210 255
270.571 -60.8054 -670.806 210 210 210 255
270.571 -60.8054 -667.829 210 210 210 255
270.571 -60.8054 -664.837 210 210 210 255
270.571 -60.8054 -661.829 210 210 210 255
270.571 -60.8054 -658.807 210 210 210 255
270.571 -60.8054 -655.769 210 210 210 255
270.571 -60.8054 -652.716 210 210 210 255
270.571 -60.8054 -649.648 210 210 210 255
270.571 -60.8054 -646.566 210 210 210 255
270.571 -60.8054 -643.47 210 210 210 255
270.571 -60.8054 -640.359 210 210 210 255
270.571 -60.8054 -637.234 210 210 210 255
270.571 -60.8054 -634.096 210 210 210 255
270.571 -60.8054 -630.943 210 210 210 255
270.571 -60.8054 -627.777 210 210 210 255
270.571 -60.8054 -624.598 210 210 210 255
270.571 -60.8054 -621.405 210 210 210 255
270.571 -60.8054 -618.199 210 210 210 255
270.571 -60.8054 -614.98 210 210 210 255
270.571 -60.8054 -611.749 210 210 210 255
270.571 -60.8054 -608.505 210 210 210 255
270.571 -60.8054 -605.248 210 210 210 255
270.571 -60.8054 -601.979 210 210 210 255
270.571 -60.8054 -598.697 210 210 210 255
270.571 -60.8054 -595.404 210 210 210 255
270.571 -60.8054 -592.099 210 210 210 255
270.571 -60.8054 -588.782 210 210 210 255
270.571 -60.8054 -585.453 210 210 210 255
270.571 -60.8054 -582.113 210 210 210 255
270.571 -60.8054 -578.761 210 210 210 255
270.571 -60.8054 -575.399 210 210 210 255
270.571 -60.8054 -572.025 210 210 210 255
270.571 -60.8054 -568.641 210 210 210 255
270.571 -60.8054 -565.246 210 210 210 255
270.571 -60.8054 -561.84 210 210 210 255
270.571 -60.8054 -558.424 210 210 210 255
270.571 -60.8054 -554.997 210 210 210 255
270.571 -60.8054 -551.56 210 210 210 255
270.571 -60.8054 -548.114 210 210 210 255
270.571 -60.8054 -544.657 210 210 210 255
270.571 -60.8054 -541.191 210 210 210 255
270.571 -60.8054 -537.714 210 210 210 255
270.571 -60.8054 -534.229 210 210 210 255
270.571 -60.8054 -530.734 210 210 210 255
270.571 -60.8054 -527.23 210 210 210 255
270.571 -60.8054 -523.717 210 210 210 255
270.571 -60.8054 -520.195 210 210 210 255
270.571 -60.8054 -516.663 210 210 210 255
270.571 -60.8054 -513.124 210 210 210 255
270.571 -60.8054 -509.575 210 210 210 255
270.571 -60.8054 -506.019 210 210 210 255
270.571 -60.8054 -502.454 210 210 210 255
270.571 -60.8054 -498.88 210 210 210 255
270.571 -60.8054 -495.299 210 210 210 255
270.571 -60.8054 -491.71 210 210 210 255
270.571 -60.8054 -488.112 210 210 210 255
270.571 -60.8054 -484.508 210 210 210 255
270.571 -60.8054 -480.895 210 210 210 255
270.571 -60.8054 -477.275 210 210 210 255
270.571 -60.8054 -473.648 210 210 210 255
270.571 -60.8054 -470.014 210 210 210 255
270.571 -60.8054 -466.372 210 210 210 255
270.571 -60.8054 -462.724 210 210 210 255
270.571 -60.8054 -459.068 210 210 210 255
270.571 -60.8054 -455.406 210 210 210 255
270.571 -60.8054 -451.737 210 210 210 255
270.571 -60.8054 -448.062 210 210 210 255
270.571 -60.8054 -444.38 210 210 210 255
270.571 -60.8054 -440.692 210 210 210 255
270.571 -60.8054 -436.998 210 210 210 255
270.571 -60.8054 -433.297 210 210 210 255
270.571 -60.8054 -429.591 210 210 210 255
270.571 -60.8054 -425.879 210 210 210 255
270.571 -60.8054 -422.161 210 210 210 255
270.571 -60.8054 -418.437 210 210 210 255
270.571 -60.8054 -414.708 210 210 210 255
270.571 -60.8054 -410.974 210 210 210 255
270.571 -60.8054 -407.234 210 210 210 255
270.571 -60.8054 -403.489 210 210 210 255
270.571 -60.8054 -399.738 210 210 210 255
270.571 -60.8054 -395.983 210 210 210 255
270.571 -60.8054 -392.223 210 210 210 255
270.571 -60.8054 -388.458 210 210 210 255
270.571 -60.8054 -384.688 210 210 210 255
270.571 -60.8054 -380.913 210 210 210 255
270.571 -60.8054 -377.134 210 210 210 255
270.571 -60.8054 -373.351 210 210 210 255
270.571 -60.8054 -369.563 210 210 210 255
270.571 -60.8054 -365.771 210 210 210 255
270.571 -60.8054 -361.975 210 210 210 255
270.571 -60.8054 -358.174 210 210 210 255
270.571 -60.8054 -354.37 210 210 210 255
270.571 -60.8054 -350.562 210 210 210 255
270.571 -60.8054 -346.75 210 210 210 255
270.571 -60.8054 -342.934 210 210 210 255
270.571 -60.8054 -339.115 210 210 210 255
270.571 -60.8054 -335.292 210 210 210 255
270.571 -60.8054 -331.466 210 210 210 255
270.571 -60.8054 -327.636 210 210 210 255
270.571 -60.8054 -323.803 210 210 210 255
270.571 -60.8054 -319.967 210 210 210 255
270.571 -60.8054 -316.128 210 210 210 255
270.571 -60.8054 -312.286 210 210 210 255
270.571 -60.8054 -308.441 210 210 210 255
270.571 -60.8054 -304.593 210 210 210 255
270.571 -60.8054 -300.742 210 210 210 255
270.571 -60.8054 -296.888 210 210 210 255
270.571 -60.8054 -293.032 210 210 210 255
270.571 -60.8054 -289.173 210 210 210 255
270.571 -60.8054 -285.312 210 210 210 255
270.571 -60.8054 -281.448 210 210 210 255
270.571 -60.8054 -277.582 210 210 210 255
270.571 -60.8054 -273.714 210 210 210 255
270.571 -60.8054 -269.844 210 210 210 255
270.571 -60.8054 -265.971 210 210 210 255
270.571 -60.8054 -262.097 210 210 210 255
270.571 -60.8054 -258.22 210 210 210 255
270.571 -60.8054 -254.341 210 210 210 255
270.571 -60.8054 -250.461 210 210 210 255
270.571 -60.8054 -246.579 210 210 210 255
270.571 -60.8054 -242.695 210 210 210 255
270.571 -60.8054 -238.81 210 210 210 255
270.571 -60.8054 -234.923 210 210 210 255
270.571 -60.8054 -231.034 210 210 210 255
270.571 -60.8054 -227.144 210 210 210 255
270.571 -60.8054 -223.253 210 210 210 255
270.571 -60.8054 -219.36 210 210 210 255
270.571 -60.8054 -215.466 210 210 210 255
270.571 -60.8054 -211.571 210 210 210 255
270.571 -60.8054 -207.675 210 210 210 255
270.571 -60.8054 -203.777 210 210 210 255
270.571 -60.8054 -199.879 210 210 210 255
270.571 -60.8054 -195.979 210 210 210 255
270.571 -60.8054 -192.079 210 210 210 255
270.571 -60.8054 -188.178 210 210 210 255
270.571 -60.8054 -184.275 210 210 210 255
270.571 -60.8054 -180.372 210 210 210 255
270.571 -60.8054 -176.469 210 210 210 255
270.571 -60.8054 -172.565 210 210 210 255
270.571 -60.8054 -168.66 210 210 210 255
270.571 -60.8054 -164.754 210 210 210 255
270.571 -60.8054 -160.848 210 210 210 255
270.571 -60.8054 -156.942 210 210 210 255
270.571 -60.8054 -153.035 210 210 210 255
270.571 -60.8054 -149.128 210 210 210 255
270.571 -60.8054 -145.22 210 210 210 255
270.571 -60.8054 -141.312 210 210 210 255
270.571 -60.8054 -137.404 210 210 210 255
270.571 -60.8054 -133.496 210 210 210 255
270.571 -60.8054 -129.587 210 210 210 255
270.571 -60.8054 -125.679 210 210 210 255
270.571 -60.8054 -121.77 210 210 210 255
270.571 -60.8054 -117.861 210 210 210 255
270.571 -60.8054 -113.952 210 210 210 255
270.571 -60.8054 -110.043 210 210 210 255
270.571 -60.8054 -106.134 210 210 210 255
270.571 -60.8054 -102.226 210 210 210 255
270.571 -60.8054 -98.3173 210 210 210 255
270.571 -60.8054 -94.4088 210 210 210 255
270.571 -60.8054 -90.5005 210 210 210 255
270.571 -60.8054 -86.5925 210 210 210 255
270.571 -60.8054 -82.6846 210 210 210 255
270.571 -60.8054 -78.7771 210 210 210 255
270.571 -60.8054 -74.87 210 210 210 255
270.571 -60.8054 -70.963 210 210 210 255
270.571 -60.8054 -67.0566 210 210 210 255
270.571 -60.8054 -63.1503 210 210 210 255
270.571 -60.8054 -59.2447 210 210 210 255
270.571 -60.8054 -55.3394 210 210 210 255
270.571 -60.8054 -51.4344 210 210 210 255
270.571 -60.8054 -47.5301 210 210 210 255
270.571 -60.8054 -43.6263 210 210 210 255
270.571 -60.8054 -39.7229 210 210 210 255
270.571 -60.8054 -35.8201 210 210 210 255
270.571 -60.8054 -31.9177 210 210 210 255
270.571 -60.8054 -28.0161 210 210 210 255
270.571 -60.8054 -24.1151 210 210 210 255
270.571 -60.8054 -20.2145 210 210 210 255
270.571 -60.8054 -16.3145 210 210 210 255
270.571 -60.8054 -12.4153 210 210 210 255
270.571 -60.8054 -8.51666 210 210 210 255
270.571 -60.8054 -4.61877 210 210 210 255
270.571 -60.8054 -0.721436 210 210 210 255
270.148 -58.1176 -718.515 210 210 210 255
270.148 -58.1176 -715.836 210 210 210 255
270.148 -58.1176 -713.138 210 210 210 255
270.148 -58.1176 -710.422 210 210 210 255
270.148 -58.1176 -707.688 210 210 210 255
270.148 -58.1176 -704.936 210 210 210 255
270.148 -58.1176 -702.166 210 210 210 255
270.148 -58.1176 -699.378 210 210 210 255
270.148 -58.1176 -696.572 210 210 210 255
270.148 -58.1176 -693.749 210 210 210 255
270.148 -58.1176 -690.909 210 210 210 255
270.148 -58.1176 -688.052 210 210 210 255
270.148 -58.1176 -685.178 210 210 210 255
270.148 -58.1176 -682.287 210 210 210 255
270.148 -58.1176 -679.38 210 210 210 255
270.148 -58.1176 -676.456 210 210 210 255
270.148 -58.1176 -673.517 210 210 210 255
270.148 -58.1176 -670.561 210 210 210 255
270.148 -58.1176 -667.589 210 210 210 255
270.148 -58.1176 -664.602 210 210 210 255
270.148 -58.1176 -661.599 210 210 210 255
270.148 -58.1176 -658.582 210 210 210 255
270.148 -58.1176 -655.548 210 210 210 255
270.148 -58.1176 -652.5 210 210 210 255
270.148 -58.1176 -649.438 210 210 210 255
270.148 -58.1176 -646.36 210 210 210 255
270.148 -58.1176 -643.268 210 210 210 255
270.148 -58.1176 -640.162 210 210 210 255
270.148 -58.1176 -637.041 210 210 210 255
270.148 -58.1176 -633.907 210 210 210 255
270.148 -58.1176 -630.758 210 210 210 255
270.148 -58.1176 -627.596 210 210 210 255
270.148 -58.1176 -624.421 210 210 210 255
270.148 -58.1176 -621.232 210 210 210 255
270.148 -58.1176 -618.03 210 210 210 255
270.148 -58.1176 -614.815 210 210 210 255
270.148 -58.1176 -611.587 210 210 210 255
270.148 -58.1176 -608.347 210 210 210 255
270.148 -58.1176 -605.093 210 210 210 255
270.148 -58.1176 -601.828 210 210 210 255
270.148 -58.1176 -598.55 210 210 210 255
270.148 -58.1176 -595.26 210 210 210 255
270.148 -58.1176 -591.958 210 210 210 255
270.148 -58.1176 -588.644 210 210 210 255
270.148 -58.1176 -585.318 210 210 210 255
270.148 -58.1176 -581.981 210 210 210 255
270.148 -58.1176 -578.633 210 210 210 255
270.148 -58.1176 -575.273 210 210 210 255
270.148 -58.1176 -571.903 210 210 210 255
270.148 -58.1176 -568.521 210 210 210 255
270.148 -58.1176 -565.128 210 210 210 255
270.148 -58.1176 -561.725 210 210 210 255
270.148 -58.1176 -558.312 210 210 210 255
270.148 -58.1176 -554.888 210 210 210 255
270.148 -58.1176 -551.453 210 210 210 255
270.148 -58.1176 -548.009 210 210 210 255
270.148 -58.1176 -544.555 210 210 210 255
270.148 -58.1176 -541.091 210 210 210 255
270.148 -58.1176 -537.617 210 210 210 255
270.148 -58.1176 -534.133 210 210 210 255
270.148 -58.1176 -530.641 210 210 210 255
270.148 -58.1176 -527.139 210 210 210 255
270.148 -58.1176 -523.627 210 210 210 255
270.148 -58.1176 -520.107 210 210 210 255
270.148 -58.1176 -516.578 210 210 210 255
270.148 -58.1176 -513.04 210 210 210 255
270.148 -58.1176 -509.494 210 210 210 255
270.148 -58.1176 -505.939 210 210 210 255
270.148 -58.1176 -502.375 210 210 210 255
270.148 -58.1176 -498.804 210 210 210 255
270.148 -58.1176 -495.224 210 210 210 255
270.148 -58.1176 -491.636 210 210 210 255
270.148 -58.1176 -488.041 210 210 210 255
270.148 -58.1176 -484.438 210 210 210 255
270.148 -58.1176 -480.827 210 210 210 255
270.148 -58.1176 -477.208 210 210 210 255
270.148 -58.1176 -473.582 210 210 210 255
270.148 -58.1176 -469.949 210 210 210 255
270.148 -58.1176 -466.309 210 210 210 255
270.148 -58.1176 -462.662 210 210 210 255
270.148 -58.1176 -459.007 210 210 210 255
270.148 -58.1176 -455.346 210 210 210 255
270.148 -58.1176 -451.679 210 210 210 255
270.148 -58.1176 -448.004 210 210 210 255
270.148 -58.1176 -444.324 210 210 210 255
270.148 -58.1176 -440.637 210 210 210 255
270.148 -58.1176 -436.943 210 210 210 255
270.148 -58.1176 -433.244 210 210 210 255
270.148 -58.1176 -429.538 210 210 210 255
270.148 -58.1176 -425.827 210 210 210 255
270.148 -58.1176 -422.11 210 210 210 255
270.148 -58.1176 -418.387 210 210 210 255
270.148 -58.1176 -414.659 210 210 210 255
270.148 -58.1176 -410.925 210 210 210 255
270.148 -58.1176 -407.186 210 210 210 255
270.148 -58.1176 -403.442 210 210 210 255
270.148 -58.1176 -399.692 210 210 210 255
270.148 -58.1176 -395.937 210 210 210 255
270.148 -58.1176 -392.177 210 210 210 255
270.148 -58.1176 -388.413 210 210 210 255
270.148 -58.1176 -384.644 210 210 210 255
270.148 -58.1176 -380.87 210 210 210 255
270.148 -58.1176 -377.091 210 210 210 255
270.148 -58.1176 -373.308 210 210 210 255
270.148 -58.1176 -369.521 210 210 210 255
270.148 -58.1176 -365.729 210 210 210 255
270.148 -58.1176 -361.933 210 210 210 255
270.148 -58.1176 -358.133 210 210 210 255
270.148 -58.1176 -354.33 210 210 210 255
270.148 -58.1176 -350.522 210 210 210 255
270.148 -58.1176 -346.71 210 210 210 255
270.148 -58.1176 -342.895 210 210 210 255
270.148 -58.1176 -339.076 210 210 210 255
270.148 -58.1176 -335.253 210 210 210 255
270.148 -58.1176 -331.427 210 210 210 255
270.148 -58.1176 -327.598 210 210 210 255
270.148 -58.1176 -323.765 210 210 210 255
270.148 -58.1176 -319.929 210 210 210 255
270.148 -58.1176 -316.09 210 210 210 255
270.148 -58.1176 -312.248 210 210 210 255
270.148 -58.1176 -308.403 210 210 210 255
270.148 -58.1176 -304.555 210 210 210 255
270.148 -58.1176 -300.704 210 210 210 255
270.148 -58.1176 -296.851 210 210 210 255
270.148 -58.1176 -292.995 210 210 210 255
270.148 -58.1176 -289.136 210 210 210 255
270.148 -58.1176 -285.275 210 210 210 255
270.148 -58.1176 -281.412 210 210 210 255
270.148 -58.1176 -277.546 210 210 210 255
270.148 -58.1176 -273.677 210 210 210 255
270.148 -58.1176 -269.807 210 210 210 255
270.148 -58.1176 -265.935 210 210 210 255
270.148 -58.1176 -262.06 210 210 210 255
270.148 -58.1176 -258.184 210 210 210 255
270.148 -58.1176 -254.305 210 210 210 255
270.148 -58.1176 -250.425 210 210 210 255
270.148 -58.1176 -246.543 210 210 210 255
270.148 -58.1176 -242.659 210 210 210 255
270.148 -58.1176 -238.774 210 210 210 255
270.148 -58.1176 -234.887 210 210 210 255
270.148 -58.1176 -230.998 210 210 210 255
270.148 -58.1176 -227.108 210 210 210 255
270.148 -58.1176 -223.217 210 210 210 255
270.148 -58.1176 -219.325 210 210 210 255
270.148 -58.1176 -215.431 210 210 210 255
270.148 -58.1176 -211.535 210 210 210 255
270.148 -58.1176 -207.639 210 210 210 255
270.148 -58.1176 -203.742 210 210 210 255
270.148 -58.1176 -199.844 210 210 210 255
270.148 -58.1176 -195.944 210 210 210 255
270.148 -58.1176 -192.044 210 210 210 255
270.148 -58.1176 -188.143 210 210 210 255
270.148 -58.1176 -184.241 210 210 210 255
270.148 -58.1176 -180.338 210 210 210 255
270.148 -58.1176 -176.435 210 210 210 255
270.148 -58.1176 -172.53 210 210 210 255
270.148 -58.1176 -168.626 210 210 210 255
270.148 -58.1176 -164.72 210 210 210 255
270.148 -58.1176 -160.815 210 210 210 255
270.148 -58.1176 -156.908 210 210 210 255
270.148 -58.1176 -153.002 210 210 210 255
270.148 -58.1176 -149.095 210 210 210 255
270.148 -58.1176 -145.187 210 210 210 255
270.148 -58.1176 -141.28 210 210 210 255
270.148 -58.1176 -137.372 210 210 210 255
270.148 -58.1176 -133.464 210 210 210 255
270.148 -58.1176 -129.556 210 210 210 255
270.148 -58.1176 -125.647 210 210 210 255
270.148 -58.1176 -121.739 210 210 210 255
270.148 -58.1176 -117.83 210 210 210 255
270.148 -58.1176 -113.922 210 210 210 255
270.148 -58.1176 -110.013 210 210 210 255
270.148 -58.1176 -106.105 210 210 210 255
270.148 -58.1176 -102.197 210 210 210 255
270.148 -58.1176 -98.2886 210 210 210 255
270.148 -58.1176 -94.3807 210 210 210 255
270.148 -58.1176 -90.473 210 210 210 255
270.148 -58.1176 -86.5655 210 210 210 255
270.148 -58.1176 -82.6581 210 210 210 255
270.148 -58.1176 -78.7513 210 210 210 255
270.148 -58.1176 -74.8447 210 210 210 255
270.148 -58.1176 -70.9385 210 210 210 255
270.148 -58.1176 -67.0325 210 210 210 255
270.148 -58.1176 -63.1272 210 210 210 255
270.148 -58.1176 -59.222 210 210 210 255
270.148 -58.1176 -55.3174 210 210 210 255
270.148 -58.1176 -51.4135 210 210 210 255
270.148 -58.1176 -47.5099 210 210 210 255
270.148 -58.1176 -43.6068 210 210 210 255
270.148 -58.1176 -39.7042 210 210 210 255
270.148 -58.1176 -35.8025 210 210 210 255
270.148 -58.1176 -31.901 210 210 210 255
270.148 -58.1176 -28.0002 210 210 210 255
270.148 -58.1176 -24.1 210 210 210 255
270.148 -58.1176 -20.2006 210 210 210 255
270.148 -58.1176 -16.3018 210 210 210 255
270.148 -58.1176 -12.4035 210 210 210 255
270.148 -58.1176 -8.50604 210 210 210 255
270.148 -58.1176 -4.60931 210 210 210 255
270.148 -58.1176 -0.713257 210 210 210 255
269.711 -55.4319 -718.18 210 210 210 255
269.711 -55.4319 -715.508 210 210 210 255
269.711 -55.4319 -712.817 210 210 210 255
269.711 -55.4319 -710.107 210 210 210 255
269.711 -55.4319 -707.379 210 210 210 255
269.711 -55.4319 -704.633 210 210 210 255
269.711 -55.4319 -701.869 210 210 210 255
269.711 -55.4319 -699.087 210 210 210 255
269.711 -55.4319 -696.287 210 210 210 255
269.711 -55.4319 -693.47 210 210 210 255
269.711 -55.4319 -690.635 210 210 210 255
269.711 -55.4319 -687.784 210 210 210 255
269.711 -55.4319 -684.915 210 210 210 255
269.711 -55.4319 -682.03 210 210 210 255
269.711 -55.4319 -679.128 210 210 210 255
269.711 -55.4319 -676.21 210 210 210 255
269.711 -55.4319 -673.275 210 210 210 255
269.711 -55.4319 -670.324 210 210 210 255
269.711 -55.4319 -667.358 210 210 210 255
269.711 -55.4319 -664.375 210 210 210 255
269.711 -55.4319 -661.378 210 210 210 255
269.711 -55.4319 -658.364 210 210 210 255
269.711 -55.4319 -655.336 210 210 210 255
269.711 -55.4319 -652.292 210 210 210 255
269.711 -55.4319 -649.234 210 210 210 255
269.711 -55.4319 -646.161 210 210 210 255
269.711 -55.4319 -643.073 210 210 210 255
269.711 -55.4319 -639.971 210 210 210 255
269.711 -55.4319 -636.854 210 210 210 255
269.711 -55.4319 -633.724 210 210 210 255
269.711 -55.4319 -630.58 210 210 210 255
269.711 -55.4319 -627.422 210 210 210 255
269.711 -55.4319 -624.25 210 210 210 255
269.711 -55.4319 -621.065 210 210 210 255
269.711 -55.4319 -617.867 210 210 210 255
269.711 -55.4319 -614.655 210 210 210 255
269.711 -55.4319 -611.431 210 210 210 255
269.711 -55.4319 -608.194 210 210 210 255
269.711 -55.4319 -604.944 210 210 210 255
269.711 -55.4319 -601.682 210 210 210 255
269.711 -55.4319 -598.407 210 210 210 255
269.711 -55.4319 -595.12 210 210 210 255
269.711 -55.4319 -591.821 210 210 210 255
269.711 -55.4319 -588.51 210 210 210 255
269.711 -55.4319 -585.188 210 210 210 255
269.711 -55.4319 -581.854 210 210 210 255
269.711 -55.4319 -578.508 210 210 210 255
269.711 -55.4319 -575.151 210 210 210 255
269.711 -55.4319 -571.783 210 210 210 255
269.711 -55.4319 -568.405 210 210 210 255
269.711 -55.4319 -565.015 210 210 210 255
269.711 -55.4319 -561.614 210 210 210 255
269.711 -55.4319 -558.203 210 210 210 255
269.711 -55.4319 -554.781 210 210 210 255
269.711 -55.4319 -551.349 210 210 210 255
269.711 -55.4319 -547.908 210 210 210 255
269.711 -55.4319 -544.456 210 210 210 255
269.711 -55.4319 -540.994 210 210 210 255
269.711 -55.4319 -537.522 210 210 210 255
269.711 -55.4319 -534.041 210 210 210 255
269.711 -55.4319 -530.55 210 210 210 255
269.711 -55.4319 -527.05 210 210 210 255
269.711 -55.4319 -523.541 210 210 210 255
269.711 -55.4319 -520.022 210 210 210 255
269.711 -55.4319 -516.495 210 210 210 255
269.711 -55.4319 -512.959 210 210 210 255
269.711 -55.4319 -509.414 210 210 210 255
269.711 -55.4319 -505.861 210 210 210 255
269.711 -55.4319 -502.299 210 210 210 255
269.711 -55.4319 -498.729 210 210 210 255
269.711 -55.4319 -495.151 210 210 210 255
269.711 -55.4319 -491.565 210 210 210 255
269.711 -55.4319 -487.971 210 210 210 255
269.711 -55.4319 -484.369 210 210 210 255
269.711 -55.4319 -480.759 210 210 210 255
269.711 -55.4319 -477.142 210 210 210 255
269.711 -55.4319 -473.518 210 210 210 255
269.711 -55.4319 -469.886 210 210 210 255
269.711 -55.4319 -466.247 210 210 210 255
269.711 -55.4319 -462.601 210 210 210 255
269.711 -55.4319 -458.948 210 210 210 255
269.711 -55.4319 -455.288 210 210 210 255
269.711 -55.4319 -451.621 210 210 210 255
269.711 -55.4319 -447.948 210 210 210 255
269.711 -55.4319 -444.268 210 210 210 255
269.711 -55.4319 -440.582 210 210 210 255
269.711 -55.4319 -436.889 210 210 210 255
269.711 -55.4319 -433.191 210 210 210 255
269.711 -55.4319 -429.487 210 210 210 255
269.711 -55.4319 -425.776 210 210 210 255
269.711 -55.4319 -422.06 210 210 210 255
269.711 -55.4319 -418.338 210 210 210 255
269.711 -55.4319 -414.61 210 210 210 255
269.711 -55.4319 -410.877 210 210 210 255
269.711 -55.4319 -407.138 210 210 210 255
269.711 -55.4319 -403.394 210 210 210 255
269.711 -55.4319 -399.645 210 210 210 255
269.711 -55.4319 -395.891 210 210 210 255
269.711 -55.4319 -392.132 210 210 210 255
269.711 -55.4319 -388.368 210 210 210 255
269.711 -55.4319 -384.599 210 210 210 255
269.711 -55.4319 -380.826 210 210 210 255
269.711 -55.4319 -377.048 210 210 210 255
269.711 -55.4319 -373.265 210 210 210 255
269.711 -55.4319 -369.478 210 210 210 255
269.711 -55.4319 -365.687 210 210 210 255
269.711 -55.4319 -361.892 210 210 210 255
269.711 -55.4319 -358.092 210 210 210 255
269.711 -55.4319 -354.289 210 210 210 255
269.711 -55.4319 -350.481 210 210 210 255
269.711 -55.4319 -346.67 210 210 210 255
269.711 -55.4319 -342.855 210 210 210 255
269.711 -55.4319 -339.036 210 210 210 255
269.711 -55.4319 -335.214 210 210 210 255
269.711 -55.4319 -331.388 210 210 210 255
269.711 -55.4319 -327.559 210 210 210 255
269.711 -55.4319 -323.726 210 210 210 255
269.711 -55.4319 -319.89 210 210 210 255
269.711 -55.4319 -316.052 210 210 210 255
269.711 -55.4319 -312.21 210 210 210 255
269.711 -55.4319 -308.365 210 210 210 255
269.711 -55.4319 -304.517 210 210 210 255
269.711 -55.4319 -300.666 210 210 210 255
269.711 -55.4319 -296.813 210 210 210 255
269.711 -55.4319 -292.957 210 210 210 255
269.711 -55.4319 -289.099 210 210 210 255
269.711 -55.4319 -285.237 210 210 210 255
269.711 -55.4319 -281.374 210 210 210 255
269.711 -55.4319 -277.508 210 210 210 255
269.711 -55.4319 -273.64 210 210 210 255
269.711 -55.4319 -269.77 210 210 210 255
269.711 -55.4319 -265.897 210 210 210 255
269.711 -55.4319 -262.023 210 210 210 255
269.711 -55.4319 -258.146 210 210 210 255
269.711 -55.4319 -254.268 210 210 210 255
269.711 -55.4319 -250.388 210 210 210 255
269.711 -55.4319 -246.506 210 210 210 255
269.711 -55.4319 -242.622 210 210 210 255
269.711 -55.4319 -238.737 210 210 210 255
269.711 -55.4319 -234.85 210 210 210 255
269.711 -55.4319 -230.962 210 210 210 255
269.711 -55.4319 -227.072 210 210 210 255
269.711 -55.4319 -223.18 210 210 210 255
269.711 -55.4319 -219.288 210 210 210 255
269.711 -55.4319 -215.394 210 210 210 255
269.711 -55.4319 -211.499 210 210 210 255
269.711 -55.4319 -207.603 210 210 210 255
269.711 -55.4319 -203.705 210 210 210 255
269.711 -55.4319 -199.807 210 210 210 255
269.711 -55.4319 -195.908 210 210 210 255
269.711 -55.4319 -192.008 210 210 210 255
269.711 -55.4319 -188.107 210 210 210 255
269.711 -55.4319 -184.205 210 210 210 255
269.711 -55.4319 -180.302 210 210 210 255
269.711 -55.4319 -176.399 210 210 210 255
269.711 -55.4319 -172.495 210 210 210 255
269.711 -55.4319 -168.59 210 210 210 255
269.711 -55.4319 -164.685 210 210 210 255
269.711 -55.4319 -160.78 210 210 210 255
269.711 -55.4319 -156.874 210 210 210 255
269.711 -55.4319 -152.967 210 210 210 255
269.711 -55.4319 -149.061 210 210 210 255
269.711 -55.4319 -145.153 210 210 210 255
269.711 -55.4319 -141.246 210 210 210 255
269.711 -55.4319 -137.338 210 210 210 255
269.711 -55.4319 -133.431 210 210 210 255
269.711 -55.4319 -129.523 210 210 210 255
269.711 -55.4319 -125.615 210 210 210 255
269.711 -55.4319 -121.707 210 210 210 255
269.711 -55.4319 -117.798 210 210 210 255
269.711 -55.4319 -113.89 210 210 210 255
269.711 -55.4319 -109.982 210 210 210 255
269.711 -55.4319 -106.074 210 210 210 255
269.711 -55.4319 -102.167 210 210 210 255
269.711 -55.4319 -98.259 210 210 210 255
269.711 -55.4319 -94.3516 210 210 210 255
269.711 -55.4319 -90.4444 210 210 210 255
269.711 -55.4319 -86.5375 210 210 210 255
269.711 -55.4319 -82.6308 210 210 210 255
269.711 -55.4319 -78.7244 210 210 210 255
269.711 -55.4319 -74.8185 210 210 210 255
269.711 -55.4319 -70.9129 210 210 210 255
269.711 -55.4319 -67.0078 210 210 210 255
269.711 -55.4319 -63.103 210 210 210 255
269.711 -55.4319 -59.1987 210 210 210 255
269.711 -55.4319 -55.2949 210 210 210 255
269.711 -55.4319 -51.3915 210 210 210 255
269.711 -55.4319 -47.4888 210 210 210 255
269.711 -55.4319 -43.5867 210 210 210 255
269.711 -55.4319 -39.685 210 210 210 255
269.711 -55.4319 -35.7841 210 210 210 255
269.711 -55.4319 -31.8837 210 210 210 255
269.711 -55.4319 -27.984 210 210 210 255
269.711 -55.4319 -24.0848 210 210 210 255
269.711 -55.4319 -20.1865 210 210 210 255
269.711 -55.4319 -16.2886 210 210 210 255
269.711 -55.4319 -12.3916 210 210 210 255
269.711 -55.4319 -8.49524 210 210 210 255
269.711 -55.4319 -4.59979 210 210 210 255
269.711 -55.4319 -0.704956 210 210 210 255
269.26 -52.7484 -717.859 210 210 210 255
269.26 -52.7484 -715.193 210 210 210 255
269.26 -52.7484 -712.508 210 210 210 255
269.26 -52.7484 -709.804 210 210 210 255
269.26 -52.7484 -707.082 210 210 210 255
269.26 -52.7484 -704.342 210 210 210 255
269.26 -52.7484 -701.583 210 210 210 255
269.26 -52.7484 -698.807 210 210 210 255
269.26 -52.7484 -696.013 210 210 210 255
269.26 -52.7484 -693.201 210 210 210 255
269.26 -52.7484 -690.372 210 210 210 255
269.26 -52.7484 -687.526 210 210 210 255
269.26 -52.7484 -684.663 210 210 210 255
269.26 -52.7484 -681.782 210 210 210 255
269.26 -52.7484 -678.885 210 210 210 255
269.26 -52.7484 -675.972 210 210 210 255
269.26 -52.7484 -673.042 210 210 210 255
269.26 -52.7484 -670.097 210 210 210 255
269.26 -52.7484 -667.135 210 210 210 255
269.26 -52.7484 -664.157 210 210 210 255
269.26 -52.7484 -661.164 210 210 210 255
269.26 -52.7484 -658.155 210 210 210 255
269.26 -52.7484 -655.131 210 210 210 255
269.26 -52.7484 -652.092 210 210 210 255
269.26 -52.7484 -649.038 210 210 210 255
269.26 -52.7484 -645.969 210 210 210 255
269.26 -52.7484 -642.885 210 210 210 255
269.26 -52.7484 -639.787 210 210 210 255
269.26 -52.7484 -636.675 210 210 210 255
269.26 -52.7484 -633.548 210 210 210 255
269.26 -52.7484 -630.408 210 210 210 255
269.26 -52.7484 -627.253 210 210 210 255
269.26 -52.7484 -624.085 210 210 210 255
269.26 -52.7484 -620.904 210 210 210 255
269.26 -52.7484 -617.709 210 210 210 255
269.26 -52.7484 -614.501 210 210 210 255
269.26 -52.7484 -611.28 210 210 210 255
269.26 -52.7484 -608.046 210 210 210 255
269.26 -52.7484 -604.8 210 210 210 255
269.26 -52.7484 -601.541 210 210 210 255
269.26 -52.7484 -598.269 210 210 210 255
269.26 -52.7484 -594.985 210 210 210 255
269.26 -52.7484 -591.689 210 210 210 255
269.26 -52.7484 -588.382 210 210 210 255
269.26 -52.7484 -585.062 210 210 210 255
269.26 -52.7484 -581.731 210 210 210 255
269.26 -52.7484 -578.388 210 210 210 255
269.26 -52.7484 -575.034 210 210 210 255
269.26 -52.7484 -571.668 210 210 210 255
269.26 -52.7484 -568.292 210 210 210 255
269.26 -52.7484 -564.905 210 210 210 255
269.26 -52.7484 -561.506 210 210 210 255
269.26 -52.7484 -558.098 210 210 210 255
269.26 -52.7484 -554.678 210 210 210 255
269.26 -52.7484 -551.249 210 210 210 255
269.26 -52.7484 -547.809 210 210 210 255
269.26 -52.7484 -544.359 210 210 210 255
269.26 -52.7484 -540.899 210 210 210 255
269.26 -52.7484 -537.43 210 210 210 255
269.26 -52.7484 -533.951 210 210 210 255
269.26 -52.7484 -530.462 210 210 210 255
269.26 -52.7484 -526.964 210 210 210 255
269.26 -52.7484 -523.456 210 210 210 255
269.26 -52.7484 -519.94 210 210 210 255
269.26 -52.7484 -516.414 210 210 210 255
269.26 -52.7484 -512.88 210 210 210 255
269.26 -52.7484 -509.337 210 210 210 255
269.26 -52.7484 -505.785 210 210 210 255
269.26 -52.7484 -502.225 210 210 210 255
269.26 -52.7484 -498.657 210 210 210 255
269.26 -52.7484 -495.08 210 210 210 255
269.26 -52.7484 -491.495 210 210 210 255
269.26 -52.7484 -487.902 210 210 210 255
269.26 -52.7484 -484.302 210 210 210 255
269.26 -52.7484 -480.694 210 210 210 255
269.26 -52.7484 -477.078 210 210 210 255
269.26 -52.7484 -473.454 210 210 210 255
269.26 -52.7484 -469.824 210 210 210 255
269.26 -52.7484 -466.186 210 210 210 255
269.26 -52.7484 -462.541 210 210 210 255
269.26 -52.7484 -458.889 210 210 210 255
269.26 -52.7484 -455.23 210 210 210 255
269.26 -52.7484 -451.564 210 210 210 255
269.26 -52.7484 -447.892 210 210 210 255
269.26 -52.7484 -444.213 210 210 210 255
269.26 -52.7484 -440.528 210 210 210 255
269.26 -52.7484 -436.836 210 210 210 255
269.26 -52.7484 -433.139 210 210 210 255
269.26 -52.7484 -429.435 210 210 210 255
269.26 -52.7484 -425.725 210 210 210 255
269.26 -52.7484 -422.01 210 210 210 255
269.26 -52.7484 -418.288 210 210 210 255
269.26 -52.7484 -414.561 210 210 210 255
269.26 -52.7484 -410.829 210 210 210 255
269.26 -52.7484 -407.091 210 210 210 255
269.26 -52.7484 -403.348 210 210 210 255
269.26 -52.7484 -399.599 210 210 210 255
269.26 -52.7484 -395.846 210 210 210 255
269.26 -52.7484 -392.087 210 210 210 255
269.26 -52.7484 -388.323 210 210 210 255
269.26 -52.7484 -384.555 210 210 210 255
269.26 -52.7484 -380.782 210 210 210 255
269.26 -52.7484 -377.004 210 210 210 255
269.26 -52.7484 -373.222 210 210 210 255
269.26 -52.7484 -369.436 210 210 210 255
269.26 -52.7484 -365.645 210 210 210 255
269.26 -52.7484 -361.85 210 210 210 255
269.26 -52.7484 -358.05 210 210 210 255
269.26 -52.7484 -354.247 210 210 210 255
269.26 -52.7484 -350.44 210 210 210 255
269.26 -52.7484 -346.629 210 210 210 255
269.26 -52.7484 -342.814 210 210 210 255
269.26 -52.7484 -338.996 210 210 210 255
269.26 -52.7484 -335.173 210 210 210 255
269.26 -52.7484 -331.348 210 210 210 255
269.26 -52.7484 -327.519 210 210 210 255
269.26 -52.7484 -323.686 210 210 210 255
269.26 -52.7484 -319.851 210 210 210 255
269.26 -52.7484 -316.012 210 210 210 255
269.26 -52.7484 -312.17 210 210 210 255
269.26 -52.7484 -308.326 210 210 210 255
269.26 -52.7484 -304.478 210 210 210 255
269.26 -52.7484 -300.627 210 210 210 255
269.26 -52.7484 -296.774 210 210 210 255
269.26 -52.7484 -292.918 210 210 210 255
269.26 -52.7484 -289.06 210 210 210 255
269.26 -52.7484 -285.199 210 210 210 255
269.26 -52.7484 -281.335 210 210 210 255
269.26 -52.7484 -277.47 210 210 210 255
269.26 -52.7484 -273.602 210 210 210 255
269.26 -52.7484 -269.731 210 210 210 255
269.26 -52.7484 -265.859 210 210 210 255
269.26 -52.7484 -261.985 210 210 210 255
269.26 -52.7484 -258.108 210 210 210 255
269.26 -52.7484 -254.23 210 210 210 255
269.26 -52.7484 -250.35 210 210 210 255
269.26 -52.7484 -246.468 210 210 210 255
269.26 -52.7484 -242.584 210 210 210 255
269.26 -52.7484 -238.699 210 210 210 255
269.26 -52.7484 -234.812 210 210 210 255
269.26 -52.7484 -230.924 210 210 210 255
269.26 -52.7484 -227.034 210 210 210 255
269.26 -52.7484 -223.143 210 210 210 255
269.26 -52.7484 -219.25 210 210 210 255
269.26 -52.7484 -215.356 210 210 210 255
269.26 -52.7484 -211.461 210 210 210 255
269.26 -52.7484 -207.565 210 210 210 255
269.26 -52.7484 -203.668 210 210 210 255
269.26 -52.7484 -199.77 210 210 210 255
269.26 -52.7484 -195.871 210 210 210 255
269.26 -52.7484 -191.97 210 210 210 255
269.26 -52.7484 -188.07 210 210 210 255
269.26 -52.7484 -184.168 210 210 210 255
269.26 -52.7484 -180.265 210 210 210 255
269.26 -52.7484 -176.362 210 210 210 255
269.26 -52.7484 -172.458 210 210 210 255
269.26 -52.7484 -168.554 210 210 210 255
269.26 -52.7484 -164.649 210 210 210 255
269.26 -52.7484 -160.744 210 210 210 255
269.26 -52.7484 -156.838 210 210 210 255
269.26 -52.7484 -152.932 210 210 210 255
269.26 -52.7484 -149.025 210 210 210 255
269.26 -52.7484 -145.118 210 210 210 255
269.26 -52.7484 -141.211 210 210 210 255
269.26 -52.7484 -137.304 210 210 210 255
269.26 -52.7484 -133.396 210 210 210 255
269.26 -52.7484 -129.489 210 210 210 255
269.26 -52.7484 -125.581 210 210 210 255
269.26 -52.7484 -121.673 210 210 210 255
269.26 -52.7484 -117.766 210 210 210 255
269.26 -52.7484 -113.858 210 210 210 255
269.26 -52.7484 -109.95 210 210 210 255
269.26 -52.7484 -106.043 210 210 210 255
269.26 -52.7484 -102.136 210 210 210 255
269.26 -52.7484 -98.2285 210 210 210 255
