ply
format ascii 1.0
element vertex 1182
property float x
property float y
property float z
property uchar red
property uchar green
property uchar blue
property uchar alpha
end_header
136.521 156.3 -330.252 210 210 210 255
136.521 156.3 -327.743 210 210 210 255
136.521 156.3 -325.24 210 210 210 255
136.521 156.3 -322.741 210 210 210 255
136.521 156.3 -320.248 210 210 210 255
136.521 156.3 -317.759 210 210 210 255
136.521 156.3 -315.276 210 210 210 255
136.521 156.3 -312.797 210 210 210 255
136.521 156.3 -310.323 210 210 210 255
136.521 156.3 -307.853 210 210 210 255
136.521 156.3 -305.389 210 210 210 255
136.521 156.3 -302.929 210 210 210 255
136.521 156.3 -300.473 210 210 210 255
136.521 156.3 -298.022 210 210 210 255
136.521 156.3 -295.575 210 210 210 255
136.521 156.3 -293.132 210 210 210 255
136.521 156.3 -290.694 210 210 210 255
136.521 156.3 -288.259 210 210 210 255
136.521 156.3 -285.829 210 210 210 255
136.521 156.3 -283.403 210 210 210 255
136.521 156.3 -280.981 210 210 210 255
136.521 156.3 -278.562 210 210 210 255
136.521 156.3 -276.148 210 210 210 255
136.521 156.3 -273.737 210 210 210 255
136.521 156.3 -271.33 210 210 210 255
136.521 156.3 -268.927 210 210 210 255
136.521 156.3 -266.527 210 210 210 255
136.521 156.3 -264.131 210 210 210 255
136.521 156.3 -261.738 210 210 210 255
136.521 156.3 -259.348 210 210 210 255
136.521 156.3 -256.962 210 210 210 255
136.521 156.3 -254.58 210 210 210 255
136.521 156.3 -252.2 210 210 210 255
136.521 156.3 -249.824 210 210 210 255
136.521 156.3 -247.451 210 210 210 255
136.521 156.3 -245.081 210 210 210 255
136.521 156.3 -242.713 210 210 210 255
136.521 156.3 -240.349 210 210 210 255
136.521 156.3 -237.988 210 210 210 255
136.521 156.3 -235.63 210 210 210 255
136.521 156.3 -233.274 210 210 210 255
136.521 156.3 -230.921 210 210 210 255
136.521 156.3 -228.571 210 210 210 255
136.521 156.3 -226.223 210 210 210 255
136.521 156.3 -223.878 210 210 210 255
136.521 156.3 -221.536 210 210 210 255
136.521 156.3 -219.196 210 210 210 255
136.521 156.3 -216.858 210 210 210 255
136.521 156.3 -214.523 210 210 210 255
136.521 156.3 -212.19 210 210 210 255
136.521 156.3 -209.859 210 210 210 255
136.521 156.3 -207.531 210 210 210 255
136.521 156.3 -205.205 210 210 210 255
136.521 156.3 -202.88 210 210 210 255
136.521 156.3 -200.558 210 210 210 255
136.521 156.3 -198.238 210 210 210 255
136.521 156.3 -195.92 210 210 210 255
136.521 156.3 -193.604 210 210 210 255
136.521 156.3 -191.29 210 210 210 255
136.521 156.3 -188.978 210 210 210 255
136.521 156.3 -186.667 210 210 210 255
136.521 156.3 -184.358 210 210 210 255
136.521 156.3 -182.051 210 210 210 255
136.521 156.3 -179.746 210 210 210 255
136.521 156.3 -177.442 210 210 210 255
136.521 156.3 -175.14 210 210 210 255
136.521 156.3 -172.839 210 210 210 255
136.521 156.3 -170.54 210 210 210 255
136.521 156.3 -168.242 210 210 210 255
136.521 156.3 -165.946 210 210 210 255
136.521 156.3 -163.651 210 210 210 255
136.521 156.3 -161.358 210 210 210 255
136.521 156.3 -159.065 210 210 210 255
136.521 156.3 -156.774 210 210 210 255
136.521 156.3 -154.485 210 210 210 255
136.521 156.3 -152.196 210 210 210 255
136.521 156.3 -149.909 210 210 210 255
136.521 156.3 -147.622 210 210 210 255
136.521 156.3 -145.337 210 210 210 255
136.521 156.3 -143.053 210 210 210 255
136.521 156.3 -140.77 210 210 210 255
136.521 156.3 -138.487 210 210 210 255
136.521 156.3 -136.206 210 210 210 255
136.521 156.3 -133.926 210 210 210 255
136.521 156.3 -131.646 210 210 210 255
136.521 156.3 -129.367 210 210 210 255
136.521 156.3 -127.089 210 210 210 255
136.521 156.3 -124.812 210 210 210 255
136.521 156.3 -122.536 210 210 210 255
136.521 156.3 -120.26 210 210 210 255
136.521 156.3 -117.985 210 210 210 255
136.521 156.3 -115.711 210 210 210 255
136.521 156.3 -113.437 210 210 210 255
136.521 156.3 -111.164 210 210 210 255
136.521 156.3 -108.891 210 210 210 255
136.521 156.3 -106.619 210 210 210 255
136.521 156.3 -104.347 210 210 210 255
136.521 156.3 -102.076 210 210 210 255
136.521 156.3 -99.8054 210 210 210 255
136.521 156.3 -97.5351 210 210 210 255
136.521 156.3 -95.2651 210 210 210 255
136.521 156.3 -92.9955 210 210 210 255
136.521 156.3 -90.7264 210 210 210 255
136.521 156.3 -88.4575 210 210 210 255
136.521 156.3 -86.1888 210 210 210 255
136.521 156.3 -83.9205 210 210 210 255
136.521 156.3 -81.6523 210 210 210 255
136.521 156.3 -79.3845 210 210 210 255
136.521 156.3 -77.1168 210 210 210 255
136.521 156.3 -74.8492 210 210 210 255
136.521 156.3 -72.5818 210 210 210 255
136.521 156.3 -70.3146 210 210 210 255
136.521 156.3 -68.0474 210 210 210 255
136.521 156.3 -65.7804 210 210 210 255
136.521 156.3 -63.5134 210 210 210 255
136.521 156.3 -61.2465 210 210 210 255
136.521 156.3 -58.9796 210 210 210 255
136.521 156.3 -56.7126 210 210 210 255
136.521 156.3 -54.4457 210 210 210 255
136.521 156.3 -52.1788 210 210 210 255
136.521 156.3 -49.9119 210 210 210 255
136.521 156.3 -47.6448 210 210 210 255
136.521 156.3 -45.3777 210 210 210 255
136.521 156.3 -43.1105 210 210 210 255
136.521 156.3 -40.8433 210 210 210 255
136.521 156.3 -38.5759 210 210 210 255
136.521 156.3 -36.3083 210 210 210 255
136.521 156.3 -34.0406 210 210 210 255
136.521 156.3 -31.7728 210 210 210 255
136.521 156.3 -29.5048 210 210 210 255
136.521 156.3 -27.2366 210 210 210 255
136.521 156.3 -24.9682 210 210 210 255
136.521 156.3 -22.6996 210 210 210 255
136.521 156.3 -20.4308 210 210 210 255
136.521 156.3 -18.1617 210 210 210 255
136.521 156.3 -15.8925 210 210 210 255
136.521 156.3 -13.6229 210 210 210 255
136.521 156.3 -11.3531 210 210 210 255
136.521 156.3 -9.08307 210 210 210 255
136.521 156.3 -6.81274 210 210 210 255
136.521 156.3 -4.54211 210 210 210 255
136.521 156.3 -2.27118 210 210 210 255
136.521 156.3 0 210 210 210 255
135.289 158.233 -483.421 210 210 210 255
135.289 158.233 -480.503 210 210 210 255
135.289 158.233 -477.594 210 210 210 255
135.289 158.233 -474.696 210 210 210 255
135.289 158.233 -471.806 210 210 210 255
135.289 158.233 -468.927 210 210 210 255
135.289 158.233 -466.056 210 210 210 255
135.289 158.233 -463.195 210 210 210 255
135.289 158.233 -460.343 210 210 210 255
135.289 158.233 -457.5 210 210 210 255
135.289 158.233 -454.666 210 210 210 255
135.289 158.233 -451.841 210 210 210 255
135.289 158.233 -449.025 210 210 210 255
135.289 158.233 -446.217 210 210 210 255
135.289 158.233 -443.418 210 210 210 255
135.289 158.233 -440.628 210 210 210 255
135.289 158.233 -437.846 210 210 210 255
135.289 158.233 -435.072 210 210 210 255
135.289 158.233 -432.307 210 210 210 255
135.289 158.233 -429.55 210 210 210 255
135.289 158.233 -426.801 210 210 210 255
135.289 158.233 -424.059 210 210 210 255
135.289 158.233 -421.326 210 210 210 255
135.289 158.233 -418.601 210 210 210 255
135.289 158.233 -415.883 210 210 210 255
135.289 158.233 -413.173 210 210 210 255
135.289 158.233 -410.471 210 210 210 255
135.289 158.233 -407.776 210 210 210 255
135.289 158.233 -405.089 210 210 210 255
135.289 158.233 -402.408 210 210 210 255
135.289 158.233 -399.735 210 210 210 255
135.289 158.233 -397.07 210 210 210 255
135.289 158.233 -394.411 210 210 210 255
135.289 158.233 -391.759 210 210 210 255
135.289 158.233 -389.114 210 210 210 255
135.289 158.233 -386.477 210 210 210 255
135.289 158.233 -383.845 210 210 210 255
135.289 158.233 -381.221 210 210 210 255
135.289 158.233 -378.603 210 210 210 255
135.289 158.233 -375.991 210 210 210 255
135.289 158.233 -373.386 210 210 210 255
135.289 158.233 -370.788 210 210 210 255
135.289 158.233 -368.195 210 210 210 255
135.289 158.233 -365.609 210 210 210 255
135.289 158.233 -363.029 210 210 210 255
135.289 158.233 -360.455 210 210 210 255
135.289 158.233 -357.887 210 210 210 255
135.289 158.233 -355.325 210 210 210 255
135.289 158.233 -352.769 210 210 210 255
135.289 158.233 -350.218 210 210 210 255
135.289 158.233 -347.673 210 210 210 255
135.289 158.233 -345.134 210 210 210 255
135.289 158.233 -342.6 210 210 210 255
135.289 158.233 -340.072 210 210 210 255
135.289 158.233 -337.549 210 210 210 255
135.289 158.233 -335.032 210 210 210 255
135.289 158.233 -332.519 210 210 210 255
135.289 158.233 -330.012 210 210 210 255
135.289 158.233 -327.51 210 210 210 255
135.289 158.233 -325.013 210 210 210 255
135.289 158.233 -322.521 210 210 210 255
135.289 158.233 -320.034 210 210 210 255
135.289 158.233 -317.551 210 210 210 255
135.289 158.233 -315.074 210 210 210 255
135.289 158.233 -312.601 210 210 210 255
135.289 158.233 -310.133 210 210 210 255
135.289 158.233 -307.669 210 210 210 255
135.289 158.233 -305.21 210 210 210 255
135.289 158.233 -302.755 210 210 210 255
135.289 158.233 -300.304 210 210 210 255
135.289 158.233 -297.858 210 210 210 255
135.289 158.233 -295.416 210 210 210 255
135.289 158.233 -292.978 210 210 210 255
135.289 158.233 -290.545 210 210 210 255
135.289 158.233 -288.115 210 210 210 255
135.289 158.233 -285.689 210 210 210 255
135.289 158.233 -283.268 210 210 210 255
135.289 158.233 -280.85 210 210 210 255
135.289 158.233 -278.436 210 210 210 255
135.289 158.233 -276.025 210 210 210 255
135.289 158.233 -273.619 210 210 210 255
135.289 158.233 -271.216 210 210 210 255
135.289 158.233 -268.816 210 210 210 255
135.289 158.233 -266.42 210 210 210 255
135.289 158.233 -264.027 210 210 210 255
135.289 158.233 -261.638 210 210 210 255
135.289 158.233 -259.252 210 210 210 255
135.289 158.233 -256.87 210 210 210 255
135.289 158.233 -254.49 210 210 210 255
135.289 158.233 -252.114 210 210 210 255
135.289 158.233 -249.741 210 210 210 255
135.289 158.233 -247.37 210 210 210 255
135.289 158.233 -245.003 210 210 210 255
135.289 158.233 -242.639 210 210 210 255
135.289 158.233 -240.278 210 210 210 255
135.289 158.233 -237.919 210 210 210 255
135.289 158.233 -235.563 210 210 210 255
135.289 158.233 -233.21 210 210 210 255
135.289 158.233 -230.86 210 210 210 255
135.289 158.233 -228.512 210 210 210 255
135.289 158.233 -226.166 210 210 210 255
135.289 158.233 -223.824 210 210 210 255
135.289 158.233 -221.483 210 210 210 255
135.289 158.233 -219.145 210 210 210 255
135.289 158.233 -216.81 210 210 210 255
135.289 158.233 -214.477 210 210 210 255
135.289 158.233 -212.146 210 210 210 255
135.289 158.233 -209.817 210 210 210 255
135.289 158.233 -207.49 210 210 210 255
135.289 158.233 -205.166 210 210 210 255
135.289 158.233 -202.843 210 210 210 255
135.289 158.233 -200.523 210 210 210 255
135.289 158.233 -198.204 210 210 210 255
135.289 158.233 -195.888 210 210 210 255
135.289 158.233 -193.573 210 210 210 255
135.289 158.233 -191.261 210 210 210 255
135.289 158.233 -188.95 210 210 210 255
135.289 158.233 -186.64 210 210 210 255
135.289 158.233 -184.333 210 210 210 255
135.289 158.233 -182.027 210 210 210 255
135.289 158.233 -179.723 210 210 210 255
135.289 158.233 -177.42 210 210 210 255
135.289 158.233 -175.119 210 210 210 255
135.289 158.233 -172.82 210 210 210 255
135.289 158.233 -170.521 210 210 210 255
135.289 158.233 -168.225 210 210 210 255
135.289 158.233 -165.929 210 210 210 255
135.289 158.233 -163.635 210 210 210 255
135.289 158.233 -161.343 210 210 210 255
135.289 158.233 -159.051 210 210 210 255
135.289 158.233 -156.761 210 210 210 255
135.289 158.233 -154.472 210 210 210 255
135.289 158.233 -152.184 210 210 210 255
135.289 158.233 -149.897 210 210 210 255
135.289 158.233 -147.612 210 210 210 255
135.289 158.233 -145.327 210 210 210 255
135.289 158.233 -143.044 210 210 210 255
135.289 158.233 -140.761 210 210 210 255
135.289 158.233 -138.479 210 210 210 255
135.289 158.233 -136.198 210 210 210 255
135.289 158.233 -133.918 210 210 210 255
135.289 158.233 -131.639 210 210 210 255
135.289 158.233 -129.361 210 210 210 255
135.289 158.233 -127.084 210 210 210 255
135.289 158.233 -124.807 210 210 210 255
135.289 158.233 -122.531 210 210 210 255
135.289 158.233 -120.255 210 210 210 255
135.289 158.233 -117.981 210 210 210 255
135.289 158.233 -115.707 210 210 210 255
135.289 158.233 -113.433 210 210 210 255
135.289 158.233 -111.16 210 210 210 255
135.289 158.233 -108.888 210 210 210 255
135.289 158.233 -106.616 210 210 210 255
135.289 158.233 -104.345 210 210 210 255
135.289 158.233 -102.074 210 210 210 255
135.289 158.233 -99.8032 210 210 210 255
135.289 158.233 -97.5331 210 210 210 255
135.289 158.233 -95.2633 210 210 210 255
135.289 158.233 -92.9939 210 210 210 255
135.289 158.233 -90.7249 210 210 210 255
135.289 158.233 -88.4561 210 210 210 255
135.289 158.233 -86.1876 210 210 210 255
135.289 158.233 -83.9194 210 210 210 255
135.289 158.233 -81.6514 210 210 210 255
135.289 158.233 -79.3835 210 210 210 255
135.289 158.233 -77.116 210 210 210 255
135.289 158.233 -74.8485 210 210 210 255
135.289 158.233 -72.5812 210 210 210 255
135.289 158.233 -70.314 210 210 210 255
135.289 158.233 -68.0469 210 210 210 255
135.289 158.233 -65.78 210 210 210 255
135.289 158.233 -63.513 210 210 210 255
135.289 158.233 -61.2462 210 210 210 255
135.289 158.233 -58.9792 210 210 210 255
135.289 158.233 -56.7124 210 210 210 255
135.289 158.233 -54.4456 210 210 210 255
135.289 158.233 -52.1786 210 210 210 255
135.289 158.233 -49.9117 210 210 210 255
135.289 158.233 -47.6447 210 210 210 255
135.289 158.233 -45.3777 210 210 210 255
135.289 158.233 -43.1105 210 210 210 255
135.289 158.233 -40.8433 210 210 210 255
135.289 158.233 -38.5759 210 210 210 255
135.289 158.233 -36.3083 210 210 210 255
135.289 158.233 -34.0406 210 210 210 255
135.289 158.233 -31.7728 210 210 210 255
135.289 158.233 -29.5048 210 210 210 255
135.289 158.233 -27.2366 210 210 210 255
135.289 158.233 -24.9682 210 210 210 255
135.289 158.233 -22.6996 210 210 210 255
135.289 158.233 -20.4308 210 210 210 255
135.289 158.233 -18.1617 210 210 210 255
135.289 158.233 -15.8925 210 210 210 255
135.289 158.233 -13.6229 210 210 210 255
135.289 158.233 -11.3531 210 210 210 255
135.289 158.233 -9.08307 210 210 210 255
135.289 158.233 -6.81274 210 210 210 255
135.289 158.233 -4.54211 210 210 210 255
135.289 158.233 -2.27118 210 210 210 255
135.289 158.233 0 210 210 210 255
134.052 160.165 -482.446 210 210 210 255
134.052 160.165 -479.547 210 210 210 255
134.052 160.165 -476.658 210 210 210 255
134.052 160.165 -473.778 210 210 210 255
134.052 160.165 -470.908 210 210 210 255
134.052 160.165 -468.046 210 210 210 255
134.052 160.165 -465.194 210 210 210 255
134.052 160.165 -462.35 210 210 210 255
134.052 160.165 -459.516 210 210 210 255
134.052 160.165 -456.69 210 210 210 255
134.052 160.165 -453.873 210 210 210 255
134.052 160.165 -451.064 210 210 210 255
134.052 160.165 -448.265 210 210 210 255
134.052 160.165 -445.473 210 210 210 255
134.052 160.165 -442.69 210 210 210 255
134.052 160.165 -439.915 210 210 210 255
134.052 160.165 -437.149 210 210 210 255
134.052 160.165 -434.39 210 210 210 255
134.052 160.165 -431.64 210 210 210 255
134.052 160.165 -428.897 210 210 210 255
134.052 160.165 -426.162 210 210 210 255
134.052 160.165 -423.435 210 210 210 255
134.052 160.165 -420.716 210 210 210 255
134.052 160.165 -418.004 210 210 210 255
134.052 160.165 -415.3 210 210 210 255
134.052 160.165 -412.603 210 210 210 255
134.052 160.165 -409.914 210 210 210 255
134.052 160.165 -407.232 210 210 210 255
134.052 160.165 -404.557 210 210 210 255
134.052 160.165 -401.889 210 210 210 255
134.052 160.165 -399.228 210 210 210 255
134.052 160.165 -396.574 210 210 210 255
134.052 160.165 -393.927 210 210 210 255
134.052 160.165 -391.287 210 210 210 255
134.052 160.165 -388.654 210 210 210 255
134.052 160.165 -386.027 210 210 210 255
134.052 160.165 -383.406 210 210 210 255
134.052 160.165 -380.793 210 210 210 255
134.052 160.165 -378.185 210 210 210 255
134.052 160.165 -375.584 210 210 210 255
134.052 160.165 -372.989 210 210 210 255
134.052 160.165 -370.4 210 210 210 255
134.052 160.165 -367.818 210 210 210 255
134.052 160.165 -365.241 210 210 210 255
134.052 160.165 -362.67 210 210 210 255
134.052 160.165 -360.105 210 210 210 255
134.052 160.165 -357.546 210 210 210 255
134.052 160.165 -354.993 210 210 210 255
134.052 160.165 -352.445 210 210 210 255
134.052 160.165 -349.903 210 210 210 255
134.052 160.165 -347.367 210 210 210 255
134.052 160.165 -344.836 210 210 210 255
134.052 160.165 -342.31 210 210 210 255
134.052 160.165 -339.79 210 210 210 255
134.052 160.165 -337.274 210 210 210 255
134.052 160.165 -334.764 210 210 210 255
134.052 160.165 -332.259 210 210 210 255
134.052 160.165 -329.759 210 210 210 255
134.052 160.165 -327.264 210 210 210 255
134.052 160.165 -324.774 210 210 210 255
134.052 160.165 -322.289 210 210 210 255
134.052 160.165 -319.808 210 210 210 255
134.052 160.165 -317.332 210 210 210 255
134.052 160.165 -314.861 210 210 210 255
134.052 160.165 -312.394 210 210 210 255
134.052 160.165 -309.932 210 210 210 255
134.052 160.165 -307.474 210 210 210 255
134.052 160.165 -305.021 210 210 210 255
134.052 160.165 -302.572 210 210 210 255
134.052 160.165 -300.127 210 210 210 255
134.052 160.165 -297.686 210 210 210 255
134.052 160.165 -295.249 210 210 210 255
134.052 160.165 -292.817 210 210 210 255
134.052 160.165 -290.388 210 210 210 255
134.052 160.165 -287.963 210 210 210 255
134.052 160.165 -285.543 210 210 210 255
134.052 160.165 -283.125 210 210 210 255
134.052 160.165 -280.712 210 210 210 255
134.052 160.165 -278.303 210 210 210 255
134.052 160.165 -275.896 210 210 210 255
134.052 160.165 -273.494 210 210 210 255
134.052 160.165 -271.095 210 210 210 255
134.052 160.165 -268.7 210 210 210 255
134.052 160.165 -266.307 210 210 210 255
134.052 160.165 -263.919 210 210 210 255
134.052 160.165 -261.533 210 210 210 255
134.052 160.165 -259.151 210 210 210 255
134.052 160.165 -256.772 210 210 210 255
134.052 160.165 -254.396 210 210 210 255
134.052 160.165 -252.023 210 210 210 255
134.052 160.165 -249.653 210 210 210 255
134.052 160.165 -247.286 210 210 210 255
134.052 160.165 -244.922 210 210 210 255
134.052 160.165 -242.56 210 210 210 255
134.052 160.165 -240.202 210 210 210 255
134.052 160.165 -237.846 210 210 210 255
134.052 160.165 -235.493 210 210 210 255
134.052 160.165 -233.143 210 210 210 255
134.052 160.165 -230.795 210 210 210 255
134.052 160.165 -228.45 210 210 210 255
134.052 160.165 -226.107 210 210 210 255
134.052 160.165 -223.766 210 210 210 255
134.052 160.165 -221.428 210 210 210 255
134.052 160.165 -219.093 210 210 210 255
134.052 160.165 -216.759 210 210 210 255
134.052 160.165 -214.428 210 210 210 255
134.052 160.165 -212.099 210 210 210 255
134.052 160.165 -209.772 210 210 210 255
134.052 160.165 -207.448 210 210 210 255
134.052 160.165 -205.125 210 210 210 255
134.052 160.165 -202.804 210 210 210 255
134.052 160.165 -200.486 210 210 210 255
134.052 160.165 -198.169 210 210 210 255
134.052 160.165 -195.854 210 210 210 255
134.052 160.165 -193.541 210 210 210 255
134.052 160.165 -191.23 210 210 210 255
134.052 160.165 -188.92 210 210 210 255
134.052 160.165 -186.612 210 210 210 255
134.052 160.165 -184.306 210 210 210 255
134.052 160.165 -182.002 210 210 210 255
134.052 160.165 -179.699 210 210 210 255
134.052 160.165 -177.397 210 210 210 255
134.052 160.165 -175.097 210 210 210 255
134.052 160.165 -172.799 210 210 210 255
134.052 160.165 -170.502 210 210 210 255
134.052 160.165 -168.206 210 210 210 255
134.052 160.165 -165.912 210 210 210 255
134.052 160.165 -163.619 210 210 210 255
134.052 160.165 -161.327 210 210 210 255
134.052 160.165 -159.036 210 210 210 255
134.052 160.165 -156.747 210 210 210 255
134.052 160.165 -154.459 210 210 210 255
134.052 160.165 -152.172 210 210 210 255
134.052 160.165 -149.886 210 210 210 255
134.052 160.165 -147.601 210 210 210 255
134.052 160.165 -145.317 210 210 210 255
134.052 160.165 -143.034 210 210 210 255
134.052 160.165 -140.752 210 210 210 255
134.052 160.165 -138.471 210 210 210 255
134.052 160.165 -136.19 210 210 210 255
134.052 160.165 -133.911 210 210 210 255
134.052 160.165 -131.632 210 210 210 255
134.052 160.165 -129.355 210 210 210 255
134.052 160.165 -127.078 210 210 210 255
134.052 160.165 -124.801 210 210 210 255
134.052 160.165 -122.526 210 210 210 255
134.052 160.165 -120.251 210 210 210 255
134.052 160.165 -117.976 210 210 210 255
134.052 160.165 -115.702 210 210 210 255
134.052 160.165 -113.429 210 210 210 255
134.052 160.165 -111.157 210 210 210 255
134.052 160.165 -108.885 210 210 210 255
134.052 160.165 -106.613 210 210 210 255
134.052 160.165 -104.342 210 210 210 255
134.052 160.165 -102.071 210 210 210 255
134.052 160.165 -99.8008 210 210 210 255
134.052 160.165 -97.5309 210 210 210 255
134.052 160.165 -95.2614 210 210 210 255
134.052 160.165 -92.9921 210 210 210 255
134.052 160.165 -90.7232 210 210 210 255
134.052 160.165 -88.4547 210 210 210 255
134.052 160.165 -86.1863 210 210 210 255
134.052 160.165 -83.9182 210 210 210 255
134.052 160.165 -81.6503 210 210 210 255
134.052 160.165 -79.3826 210 210 210 255
134.052 160.165 -77.1151 210 210 210 255
134.052 160.165 -74.8478 210 210 210 255
134.052 160.165 -72.5806 210 210 210 255
134.052 160.165 -70.3135 210 210 210 255
134.052 160.165 -68.0464 210 210 210 255
134.052 160.165 -65.7795 210 210 210 255
134.052 160.165 -63.5126 210 210 210 255
134.052 160.165 -61.2458 210 210 210 255
134.052 160.165 -58.979 210 210 210 255
134.052 160.165 -56.7122 210 210 210 255
134.052 160.165 -54.4453 210 210 210 255
134.052 160.165 -52.1785 210 210 210 255
134.052 160.165 -49.9116 210 210 210 255
134.052 160.165 -47.6446 210 210 210 255
134.052 160.165 -45.3776 210 210 210 255
134.052 160.165 -43.1104 210 210 210 255
134.052 160.165 -40.8431 210 210 210 255
134.052 160.165 -38.5758 210 210 210 255
134.052 160.165 -36.3083 210 210 210 255
134.052 160.165 -34.0406 210 210 210 255
134.052 160.165 -31.7728 210 210 210 255
134.052 160.165 -29.5048 210 210 210 255
134.052 160.165 -27.2366 210 210 210 255
134.052 160.165 -24.9682 210 210 210 255
134.052 160.165 -22.6996 210 210 210 255
134.052 160.165 -20.4308 210 210 210 255
134.052 160.165 -18.1617 210 210 210 255
134.052 160.165 -15.8925 210 210 210 255
134.052 160.165 -13.6229 210 210 210 255
134.052 160.165 -11.3531 210 210 210 255
134.052 160.165 -9.08307 210 210 210 255
134.052 160.165 -6.81274 210 210 210 255
134.052 160.165 -4.54211 210 210 210 255
134.052 160.165 -2.27118 210 210 210 255
134.052 160.165 0 210 210 210 255
132.809 162.097 -481.42 210 210 210 255
132.809 162.097 -478.542 210 210 210 255
132.809 162.097 -475.673 210 210 210 255
132.809 162.097 -472.813 210 210 210 255
132.809 162.097 -469.962 210 210 210 255
132.809 162.097 -467.12 210 210 210 255
132.809 162.097 -464.286 210 210 210 255
132.809 162.097 -461.461 210 210 210 255
132.809 162.097 -458.645 210 210 210 255
132.809 162.097 -455.837 210 210 210 255
132.809 162.097 -453.038 210 210 210 255
132.809 162.097 -450.247 210 210 210 255
132.809 162.097 -447.465 210 210 210 255
132.809 162.097 -444.69 210 210 210 255
132.809 162.097 -441.924 210 210 210 255
132.809 162.097 -439.166 210 210 210 255
132.809 162.097 -436.415 210 210 210 255
132.809 162.097 -433.672 210 210 210 255
132.809 162.097 -430.938 210 210 210 255
132.809 162.097 -428.21 210 210 210 255
132.809 162.097 -425.491 210 210 210 255
132.809 162.097 -422.779 210 210 210 255
132.809 162.097 -420.074 210 210 210 255
132.809 162.097 -417.377 210 210 210 255
132.809 162.097 -414.687 210 210 210 255
132.809 162.097 -412.004 210 210 210 255
132.809 162.097 -409.328 210 210 210 255
132.809 162.097 -406.659 210 210 210 255
132.809 162.097 -403.998 210 210 210 255
132.809 162.097 -401.343 210 210 210 255
132.809 162.097 -398.695 210 210 210 255
132.809 162.097 -396.053 210 210 210 255
132.809 162.097 -393.419 210 210 210 255
132.809 162.097 -390.791 210 210 210 255
132.809 162.097 -388.169 210 210 210 255
132.809 162.097 -385.554 210 210 210 255
132.809 162.097 -382.945 210 210 210 255
132.809 162.097 -380.342 210 210 210 255
132.809 162.097 -377.746 210 210 210 255
132.809 162.097 -375.155 210 210 210 255
132.809 162.097 -372.571 210 210 210 255
132.809 162.097 -369.993 210 210 210 255
132.809 162.097 -367.42 210 210 210 255
132.809 162.097 -364.854 210 210 210 255
132.809 162.097 -362.293 210 210 210 255
132.809 162.097 -359.738 210 210 210 255
132.809 162.097 -357.188 210 210 210 255
132.809 162.097 -354.644 210 210 210 255
132.809 162.097 -352.105 210 210 210 255
132.809 162.097 -349.572 210 210 210 255
132.809 162.097 -347.044 210 210 210 255
132.809 162.097 -344.522 210 210 210 255
132.809 162.097 -342.005 210 210 210 255
132.809 162.097 -339.492 210 210 210 255
132.809 162.097 -336.985 210 210 210 255
132.809 162.097 -334.483 210 210 210 255
132.809 162.097 -331.986 210 210 210 255
132.809 162.097 -329.493 210 210 210 255
132.809 162.097 -327.006 210 210 210 255
132.809 162.097 -324.523 210 210 210 255
132.809 162.097 -322.045 210 210 210 255
132.809 162.097 -319.571 210 210 210 255
132.809 162.097 -317.102 210 210 210 255
132.809 162.097 -314.637 210 210 210 255
132.809 162.097 -312.177 210 210 210 255
132.809 162.097 -309.721 210 210 210 255
132.809 162.097 -307.27 210 210 210 255
132.809 162.097 -304.822 210 210 210 255
132.809 162.097 -302.379 210 210 210 255
132.809 162.097 -299.94 210 210 210 255
132.809 162.097 -297.505 210 210 210 255
132.809 162.097 -295.074 210 210 210 255
132.809 162.097 -292.647 210 210 210 255
132.809 162.097 -290.223 210 210 210 255
132.809 162.097 -287.804 210 210 210 255
132.809 162.097 -285.388 210 210 210 255
132.809 162.097 -282.976 210 210 210 255
132.809 162.097 -280.567 210 210 210 255
132.809 162.097 -278.162 210 210 210 255
132.809 162.097 -275.761 210 210 210 255
132.809 162.097 -273.363 210 210 210 255
132.809 162.097 -270.968 210 210 210 255
132.809 162.097 -268.577 210 210 210 255
132.809 162.097 -266.189 210 210 210 255
132.809 162.097 -263.804 210 210 210 255
132.809 162.097 -261.423 210 210 210 255
132.809 162.097 -259.044 210 210 210 255
132.809 162.097 -256.669 210 210 210 255
132.809 162.097 -254.296 210 210 210 255
132.809 162.097 -251.927 210 210 210 255
132.809 162.097 -249.561 210 210 210 255
132.809 162.097 -247.197 210 210 210 255
132.809 162.097 -244.836 210 210 210 255
132.809 162.097 -242.478 210 210 210 255
132.809 162.097 -240.122 210 210 210 255
132.809 162.097 -237.77 210 210 210 255
132.809 162.097 -235.42 210 210 210 255
132.809 162.097 -233.072 210 210 210 255
132.809 162.097 -230.727 210 210 210 255
132.809 162.097 -228.384 210 210 210 255
132.809 162.097 -226.044 210 210 210 255
132.809 162.097 -223.706 210 210 210 255
132.809 162.097 -221.37 210 210 210 255
132.809 162.097 -219.037 210 210 210 255
132.809 162.097 -216.706 210 210 210 255
132.809 162.097 -214.377 210 210 210 255
132.809 162.097 -212.05 210 210 210 255
132.809 162.097 -209.725 210 210 210 255
132.809 162.097 -207.403 210 210 210 255
132.809 162.097 -205.082 210 210 210 255
132.809 162.097 -202.763 210 210 210 255
132.809 162.097 -200.446 210 210 210 255
132.809 162.097 -198.131 210 210 210 255
132.809 162.097 -195.818 210 210 210 255
132.809 162.097 -193.507 210 210 210 255
132.809 162.097 -191.197 210 210 210 255
132.809 162.097 -188.889 210 210 210 255
132.809 162.097 -186.583 210 210 210 255
132.809 162.097 -184.278 210 210 210 255
132.809 162.097 -181.975 210 210 210 255
132.809 162.097 -179.673 210 210 210 255
132.809 162.097 -177.373 210 210 210 255
132.809 162.097 -175.074 210 210 210 255
132.809 162.097 -172.777 210 210 210 255
132.809 162.097 -170.481 210 210 210 255
132.809 162.097 -168.186 210 210 210 255
132.809 162.097 -165.893 210 210 210 255
132.809 162.097 -163.601 210 210 210 255
132.809 162.097 -161.31 210 210 210 255
132.809 162.097 -159.021 210 210 210 255
132.809 162.097 -156.732 210 210 210 255
132.809 162.097 -154.445 210 210 210 255
132.809 162.097 -152.158 210 210 210 255
132.809 162.097 -149.873 210 210 210 255
132.809 162.097 -147.589 210 210 210 255
132.809 162.097 -145.306 210 210 210 255
132.809 162.097 -143.023 210 210 210 255
132.809 162.097 -140.742 210 210 210 255
132.809 162.097 -138.461 210 210 210 255
132.809 162.097 -136.182 210 210 210 255
132.809 162.097 -133.903 210 210 210 255
132.809 162.097 -131.625 210 210 210 255
132.809 162.097 -129.348 210 210 210 255
132.809 162.097 -127.071 210 210 210 255
132.809 162.097 -124.795 210 210 210 255
132.809 162.097 -122.52 210 210 210 255
132.809 162.097 -120.245 210 210 210 255
132.809 162.097 -117.971 210 210 210 255
132.809 162.097 -115.698 210 210 210 255
132.809 162.097 -113.425 210 210 210 255
132.809 162.097 -111.153 210 210 210 255
132.809 162.097 -108.881 210 210 210 255
132.809 162.097 -106.61 210 210 210 255
132.809 162.097 -104.339 210 210 210 255
132.809 162.097 -102.068 210 210 210 255
132.809 162.097 -99.7983 210 210 210 255
132.809 162.097 -97.5287 210 210 210 255
132.809 162.097 -95.2593 210 210 210 255
132.809 162.097 -92.9903 210 210 210 255
132.809 162.097 -90.7216 210 210 210 255
132.809 162.097 -88.4531 210 210 210 255
132.809 162.097 -86.1849 210 210 210 255
132.809 162.097 -83.917 210 210 210 255
132.809 162.097 -81.6492 210 210 210 255
132.809 162.097 -79.3817 210 210 210 255
132.809 162.097 -77.1143 210 210 210 255
132.809 162.097 -74.847 210 210 210 255
132.809 162.097 -72.5799 210 210 210 255
132.809 162.097 -70.3129 210 210 210 255
132.809 162.097 -68.0459 210 210 210 255
132.809 162.097 -65.7791 210 210 210 255
132.809 162.097 -63.5123 210 210 210 255
132.809 162.097 -61.2454 210 210 210 255
132.809 162.097 -58.9787 210 210 210 255
132.809 162.097 -56.7119 210 210 210 255
132.809 162.097 -54.4451 210 210 210 255
132.809 162.097 -52.1783 210 210 210 255
132.809 162.097 -49.9114 210 210 210 255
132.809 162.097 -47.6445 210 210 210 255
132.809 162.097 -45.3774 210 210 210 255
132.809 162.097 -43.1104 210 210 210 255
132.809 162.097 -40.8431 210 210 210 255
132.809 162.097 -38.5757 210 210 210 255
132.809 162.097 -36.3082 210 210 210 255
132.809 162.097 -34.0406 210 210 210 255
132.809 162.097 -31.7728 210 210 210 255
132.809 162.097 -29.5048 210 210 210 255
132.809 162.097 -27.2366 210 210 210 255
132.809 162.097 -24.9682 210 210 210 255
132.809 162.097 -22.6996 210 210 210 255
132.809 162.097 -20.4308 210 210 210 255
132.809 162.097 -18.1617 210 210 210 255
132.809 162.097 -15.8925 210 210 210 255
132.809 162.097 -13.6229 210 210 210 255
132.809 162.097 -11.3531 210 210 210 255
132.809 162.097 -9.08307 210 210 210 255
132.809 162.097 -6.81274 210 210 210 255
132.809 162.097 -4.54211 210 210 210 255
132.809 162.097 -2.27124 210 210 210 255
132.809 162.097 0 210 210 210 255
131.56 164.028 -480.342 210 210 210 255
131.56 164.028 -477.486 210 210 210 255
131.56 164.028 -474.638 210 210 210 255
131.56 164.028 -471.799 210 210 210 255
131.56 164.028 -468.968 210 210 210 255
131.56 164.028 -466.146 210 210 210 255
131.56 164.028 -463.332 210 210 210 255
131.56 164.028 -460.527 210 210 210 255
131.56 164.028 -457.73 210 210 210 255
131.56 164.028 -454.942 210 210 210 255
131.56 164.028 -452.161 210 210 210 255
131.56 164.028 -449.389 210 210 210 255
131.56 164.028 -446.624 210 210 210 255
131.56 164.028 -443.868 210 210 210 255
131.56 164.028 -441.119 210 210 210 255
131.56 164.028 -438.378 210 210 210 255
131.56 164.028 -435.644 210 210 210 255
131.56 164.028 -432.918 210 210 210 255
131.56 164.028 -430.2 210 210 210 255
131.56 164.028 -427.489 210 210 210 255
131.56 164.028 -424.785 210 210 210 255
131.56 164.028 -422.089 210 210 210 255
131.56 164.028 -419.4 210 210 210 255
131.56 164.028 -416.717 210 210 210 255
131.56 164.028 -414.042 210 210 210 255
131.56 164.028 -411.374 210 210 210 255
131.56 164.028 -408.713 210 210 210 255
131.56 164.028 -406.058 210 210 210 255
131.56 164.028 -403.41 210 210 210 255
131.56 164.028 -400.769 210 210 210 255
131.56 164.028 -398.134 210 210 210 255
131.56 164.028 -395.506 210 210 210 255
131.56 164.028 -392.884 210 210 210 255
131.56 164.028 -390.269 210 210 210 255
131.56 164.028 -387.659 210 210 210 255
131.56 164.028 -385.056 210 210 210 255
131.56 164.028 -382.46 210 210 210 255
131.56 164.028 -379.869 210 210 210 255
131.56 164.028 -377.284 210 210 210 255
131.56 164.028 -374.705 210 210 210 255
131.56 164.028 -372.132 210 210 210 255
131.56 164.028 -369.564 210 210 210 255
131.56 164.028 -367.003 210 210 210 255
131.56 164.028 -364.447 210 210 210 255
131.56 164.028 -361.896 210 210 210 255
131.56 164.028 -359.351 210 210 210 255
131.56 164.028 -356.811 210 210 210 255
131.56 164.028 -354.277 210 210 210 255
131.56 164.028 -351.748 210 210 210 255
131.56 164.028 -349.224 210 210 210 255
131.56 164.028 -346.706 210 210 210 255
131.56 164.028 -344.192 210 210 210 255
131.56 164.028 -341.684 210 210 210 255
131.56 164.028 -339.18 210 210 210 255
131.56 164.028 -336.681 210 210 210 255
131.56 164.028 -334.187 210 210 210 255
131.56 164.028 -331.698 210 210 210 255
131.56 164.028 -329.214 210 210 210 255
131.56 164.028 -326.734 210 210 210 255
131.56 164.028 -324.259 210 210 210 255
131.56 164.028 -321.788 210 210 210 255
131.56 164.028 -319.322 210 210 210 255
131.56 164.028 -316.86 210 210 210 255
131.56 164.028 -314.402 210 210 210 255
131.56 164.028 -311.949 210 210 210 255
131.56 164.028 -309.5 210 210 210 255
131.56 164.028 -307.055 210 210 210 255
131.56 164.028 -304.614 210 210 210 255
131.56 164.028 -302.177 210 210 210 255
131.56 164.028 -299.744 210 210 210 255
131.56 164.028 -297.315 210 210 210 255
131.56 164.028 -294.889 210 210 210 255
131.56 164.028 -292.468 210 210 210 255
131.56 164.028 -290.05 210 210 210 255
131.56 164.028 -287.636 210 210 210 255
131.56 164.028 -285.225 210 210 210 255
131.56 164.028 -282.818 210 210 210 255
131.56 164.028 -280.415 210 210 210 255
131.56 164.028 -278.015 210 210 210 255
131.56 164.028 -275.618 210 210 210 255
131.56 164.028 -273.225 210 210 210 255
131.56 164.028 -270.835 210 210 210 255
131.56 164.028 -268.448 210 210 210 255
131.56 164.028 -266.065 210 210 210 255
131.56 164.028 -263.684 210 210 210 255
131.56 164.028 -261.307 210 210 210 255
131.56 164.028 -258.932 210 210 210 255
131.56 164.028 -256.561 210 210 210 255
131.56 164.028 -254.192 210 210 210 255
131.56 164.028 -251.826 210 210 210 255
131.56 164.028 -249.464 210 210 210 255
131.56 164.028 -247.103 210 210 210 255
131.56 164.028 -244.746 210 210 210 255
131.56 164.028 -242.391 210 210 210 255
131.56 164.028 -240.039 210 210 210 255
131.56 164.028 -237.689 210 210 210 255
131.56 164.028 -235.342 210 210 210 255
131.56 164.028 -232.998 210 210 210 255
131.56 164.028 -230.655 210 210 210 255
131.56 164.028 -228.315 210 210 210 255
131.56 164.028 -225.978 210 210 210 255
131.56 164.028 -223.643 210 210 210 255
131.56 164.028 -221.31 210 210 210 255
131.56 164.028 -218.979 210 210 210 255
131.56 164.028 -216.65 210 210 210 255
131.56 164.028 -214.323 210 210 210 255
131.56 164.028 -211.999 210 210 210 255
131.56 164.028 -209.676 210 210 210 255
131.56 164.028 -207.356 210 210 210 255
131.56 164.028 -205.037 210 210 210 255
131.56 164.028 -202.72 210 210 210 255
131.56 164.028 -200.405 210 210 210 255
131.56 164.028 -198.092 210 210 210 255
131.56 164.028 -195.781 210 210 210 255
131.56 164.028 -193.471 210 210 210 255
131.56 164.028 -191.163 210 210 210 255
131.56 164.028 -188.856 210 210 210 255
131.56 164.028 -186.552 210 210 210 255
131.56 164.028 -184.248 210 210 210 255
131.56 164.028 -181.947 210 210 210 255
131.56 164.028 -179.646 210 210 210 255
131.56 164.028 -177.348 210 210 210 255
131.56 164.028 -175.05 210 210 210 255
131.56 164.028 -172.754 210 210 210 255
131.56 164.028 -170.459 210 210 210 255
131.56 164.028 -168.166 210 210 210 255
131.56 164.028 -165.874 210 210 210 255
131.56 164.028 -163.583 210 210 210 255
131.56 164.028 -161.293 210 210 210 255
131.56 164.028 -159.004 210 210 210 255
131.56 164.028 -156.717 210 210 210 255
131.56 164.028 -154.43 210 210 210 255
131.56 164.028 -152.145 210 210 210 255
131.56 164.028 -149.86 210 210 210 255
131.56 164.028 -147.577 210 210 210 255
131.56 164.028 -145.294 210 210 210 255
131.56 164.028 -143.013 210 210 210 255
131.56 164.028 -140.732 210 210 210 255
131.56 164.028 -138.452 210 210 210 255
131.56 164.028 -136.173 210 210 210 255
131.56 164.028 -133.895 210 210 210 255
131.56 164.028 -131.617 210 210 210 255
131.56 164.028 -129.34 210 210 210 255
131.56 164.028 -127.064 210 210 210 255
131.56 164.028 -124.789 210 210 210 255
131.56 164.028 -122.514 210 210 210 255
131.56 164.028 -120.24 210 210 210 255
131.56 164.028 -117.966 210 210 210 255
131.56 164.028 -115.693 210 210 210 255
131.56 164.028 -113.421 210 210 210 255
131.56 164.028 -111.149 210 210 210 255
131.56 164.028 -108.878 210 210 210 255
131.56 164.028 -106.606 210 210 210 255
131.56 164.028 -104.336 210 210 210 255
131.56 164.028 -102.066 210 210 210 255
131.56 164.028 -99.7958 210 210 210 255
131.56 164.028 -97.5264 210 210 210 255
131.56 164.028 -95.2572 210 210 210 255
131.56 164.028 -92.9883 210 210 210 255
131.56 164.028 -90.7198 210 210 210 255
131.56 164.028 -88.4515 210 210 210 255
131.56 164.028 -86.1835 210 210 210 255
131.56 164.028 -83.9157 210 210 210 255
131.56 164.028 -81.6481 210 210 210 255
131.56 164.028 -79.3806 210 210 210 255
131.56 164.028 -77.1133 210 210 210 255
131.56 164.028 -74.8462 210 210 210 255
131.56 164.028 -72.5792 210 210 210 255
131.56 164.028 -70.3122 210 210 210 255
131.56 164.028 -68.0453 210 210 210 255
131.56 164.028 -65.7786 210 210 210 255
131.56 164.028 -63.5118 210 210 210 255
131.56 164.028 -61.2451 210 210 210 255
131.56 164.028 -58.9784 210 210 210 255
131.56 164.028 -56.7117 210 210 210 255
131.56 164.028 -54.4449 210 210 210 255
131.56 164.028 -52.1781 210 210 210 255
131.56 164.028 -49.9113 210 210 210 255
131.56 164.028 -47.6443 210 210 210 255
131.56 164.028 -45.3774 210 210 210 255
131.56 164.028 -43.1102 210 210 210 255
131.56 164.028 -40.843 210 210 210 255
131.56 164.028 -38.5757 210 210 210 255
131.56 164.028 -36.3082 210 210 210 255
131.56 164.028 -34.0405 210 210 210 255
131.56 164.028 -31.7727 210 210 210 255
131.56 164.028 -29.5047 210 210 210 255
131.56 164.028 -27.2366 210 210 210 255
131.56 164.028 -24.9682 210 210 210 255
131.56 164.028 -22.6996 210 210 210 255
131.56 164.028 -20.4308 210 210 210 255
131.56 164.028 -18.1617 210 210 210 255
131.56 164.028 -15.8925 210 210 210 255
131.56 164.028 -13.6229 210 210 210 255
131.56 164.028 -11.3531 210 210 210 255
131.56 164.028 -9.08307 210 210 210 255
131.56 164.028 -6.81274 210 210 210 255
131.56 164.028 -4.54211 210 210 210 255
131.56 164.028 -2.27124 210 210 210 255
131.56 164.028 0 210 210 210 255
130.306 165.957 -479.211 210 210 210 255
130.306 165.957 -476.377 210 210 210 255
130.306 165.957 -473.551 210 210 210 255
130.306 165.957 -470.734 210 210 210 255
130.306 165.957 -467.925 210 210 210 255
130.306 165.957 -465.124 210 210 210 255
130.306 165.957 -462.332 210 210 210 255
130.306 165.957 -459.547 210 210 210 255
130.306 165.957 -456.771 210 210 210 255
130.306 165.957 -454.002 210 210 210 255
130.306 165.957 -451.241 210 210 210 255
130.306 165.957 -448.488 210 210 210 255
130.306 165.957 -445.742 210 210 210 255
130.306 165.957 -443.004 210 210 210 255
130.306 165.957 -440.274 210 210 210 255
130.306 165.957 -437.551 210 210 210 255
130.306 165.957 -434.835 210 210 210 255
130.306 165.957 -432.127 210 210 210 255
130.306 165.957 -429.426 210 210 210 255
130.306 165.957 -426.732 210 210 210 255
130.306 165.957 -424.045 210 210 210 255
130.306 165.957 -421.365 210 210 210 255
130.306 165.957 -418.692 210 210 210 255
130.306 165.957 -416.025 210 210 210 255
130.306 165.957 -413.366 210 210 210 255
130.306 165.957 -410.713 210 210 210 255
130.306 165.957 -408.066 210 210 210 255
130.306 165.957 -405.427 210 210 210 255
130.306 165.957 -402.793 210 210 210 255
130.306 165.957 -400.166 210 210 210 255
130.306 165.957 -397.546 210 210 210 255
130.306 165.957 -394.931 210 210 210 255
130.306 165.957 -392.323 210 210 210 255
130.306 165.957 -389.721 210 210 210 255
130.306 165.957 -387.125 210 210 210 255
130.306 165.957 -384.535 210 210 210 255
130.306 165.957 -381.95 210 210 210 255
130.306 165.957 -379.372 210 210 210 255
130.306 165.957 -376.799 210 210 210 255
130.306 165.957 -374.232 210 210 210 255
130.306 165.957 -371.671 210 210 210 255
130.306 165.957 -369.115 210 210 210 255
130.306 165.957 -366.564 210 210 210 255
130.306 165.957 -364.019 210 210 210 255
130.306 165.957 -361.48 210 210 210 255
130.306 165.957 -358.945 210 210 210 255
130.306 165.957 -356.416 210 210 210 255
130.306 165.957 -353.892 210 210 210 255
130.306 165.957 -351.373 210 210 210 255
130.306 165.957 -348.859 210 210 210 255
130.306 165.957 -346.35 210 210 210 255
130.306 165.957 -343.846 210 210 210 255
130.306 165.957 -341.347 210 210 210 255
130.306 165.957 -338.852 210 210 210 255
130.306 165.957 -336.363 210 210 210 255
130.306 165.957 -333.877 210 210 210 255
130.306 165.957 -331.397 210 210 210 255
130.306 165.957 -328.921 210 210 210 255
130.306 165.957 -326.449 210 210 210 255
130.306 165.957 -323.982 210 210 210 255
130.306 165.957 -321.519 210 210 210 255
130.306 165.957 -319.06 210 210 210 255
130.306 165.957 -316.606 210 210 210 255
130.306 165.957 -314.155 210 210 210 255
130.306 165.957 -311.709 210 210 210 255
130.306 165.957 -309.267 210 210 210 255
130.306 165.957 -306.829 210 210 210 255
130.306 165.957 -304.395 210 210 210 255
130.306 165.957 -301.964 210 210 210 255
130.306 165.957 -299.538 210 210 210 255
130.306 165.957 -297.115 210 210 210 255
130.306 165.957 -294.696 210 210 210 255
130.306 165.957 -292.28 210 210 210 255
130.306 165.957 -289.868 210 210 210 255
130.306 165.957 -287.46 210 210 210 255
130.306 165.957 -285.055 210 210 210 255
130.306 165.957 -282.653 210 210 210 255
130.306 165.957 -280.255 210 210 210 255
130.306 165.957 -277.86 210 210 210 255
130.306 165.957 -275.469 210 210 210 255
130.306 165.957 -273.08 210 210 210 255
130.306 165.957 -270.695 210 210 210 255
130.306 165.957 -268.313 210 210 210 255
130.306 165.957 -265.934 210 210 210 255
130.306 165.957 -263.558 210 210 210 255
130.306 165.957 -261.185 210 210 210 255
130.306 165.957 -258.815 210 210 210 255
130.306 165.957 -256.447 210 210 210 255
130.306 165.957 -254.083 210 210 210 255
130.306 165.957 -251.721 210 210 210 255
130.306 165.957 -249.362 210 210 210 255
130.306 165.957 -247.005 210 210 210 255
130.306 165.957 -244.651 210 210 210 255
130.306 165.957 -242.3 210 210 210 255
130.306 165.957 -239.951 210 210 210 255
130.306 165.957 -237.605 210 210 210 255
130.306 165.957 -235.261 210 210 210 255
130.306 165.957 -232.919 210 210 210 255
130.306 165.957 -230.58 210 210 210 255
130.306 165.957 -228.243 210 210 210 255
130.306 165.957 -225.909 210 210 210 255
130.306 165.957 -223.576 210 210 210 255
130.306 165.957 -221.246 210 210 210 255
130.306 165.957 -218.917 210 210 210 255
130.306 165.957 -216.591 210 210 210 255
130.306 165.957 -214.267 210 210 210 255
130.306 165.957 -211.945 210 210 210 255
130.306 165.957 -209.625 210 210 210 255
130.306 165.957 -207.306 210 210 210 255
130.306 165.957 -204.99 210 210 210 255
130.306 165.957 -202.675 210 210 210 255
130.306 165.957 -200.362 210 210 210 255
130.306 165.957 -198.051 210 210 210 255
130.306 165.957 -195.741 210 210 210 255
130.306 165.957 -193.433 210 210 210 255
130.306 165.957 -191.127 210 210 210 255
130.306 165.957 -188.822 210 210 210 255
130.306 165.957 -186.519 210 210 210 255
130.306 165.957 -184.217 210 210 210 255
130.306 165.957 -181.917 210 210 210 255
130.306 165.957 -179.618 210 210 210 255
130.306 165.957 -177.321 210 210 210 255
130.306 165.957 -175.025 210 210 210 255
130.306 165.957 -172.73 210 210 210 255
130.306 165.957 -170.436 210 210 210 255
130.306 165.957 -168.144 210 210 210 255
130.306 165.957 -165.853 210 210 210 255
130.306 165.957 -163.563 210 210 210 255
130.306 165.957 -161.274 210 210 210 255
130.306 165.957 -158.987 210 210 210 255
130.306 165.957 -156.7 210 210 210 255
130.306 165.957 -154.415 210 210 210 255
130.306 165.957 -152.13 210 210 210 255
130.306 165.957 -149.846 210 210 210 255
130.306 165.957 -147.564 210 210 210 255
130.306 165.957 -145.282 210 210 210 255
130.306 165.957 -143.001 210 210 210 255
130.306 165.957 -140.721 210 210 210 255
130.306 165.957 -138.442 210 210 210 255
130.306 165.957 -136.164 210 210 210 255
130.306 165.957 -133.886 210 210 210 255
130.306 165.957 -131.609 210 210 210 255
130.306 165.957 -129.333 210 210 210 255
130.306 165.957 -127.057 210 210 210 255
130.306 165.957 -124.782 210 210 210 255
130.306 165.957 -122.508 210 210 210 255
130.306 165.957 -120.234 210 210 210 255
130.306 165.957 -117.961 210 210 210 255
130.306 165.957 -115.689 210 210 210 255
130.306 165.957 -113.416 210 210 210 255
130.306 165.957 -111.145 210 210 210 255
130.306 165.957 -108.874 210 210 210 255
130.306 165.957 -106.603 210 210 210 255
130.306 165.957 -104.333 210 210 210 255
130.306 165.957 -102.063 210 210 210 255
130.306 165.957 -99.7931 210 210 210 255
130.306 165.957 -97.5239 210 210 210 255
130.306 165.957 -95.2549 210 210 210 255
130.306 165.957 -92.9863 210 210 210 255
130.306 165.957 -90.718 210 210 210 255
130.306 165.957 -88.4499 210 210 210 255
130.306 165.957 -86.182 210 210 210 255
130.306 165.957 -83.9143 210 210 210 255
130.306 165.957 -81.6469 210 210 210 255
130.306 165.957 -79.3796 210 210 210 255
130.306 165.957 -77.1124 210 210 210 255
130.306 165.957 -74.8453 210 210 210 255
130.306 165.957 -72.5784 210 210 210 255
130.306 165.957 -70.3115 210 210 210 255
130.306 165.957 -68.0448 210 210 210 255
130.306 165.957 -65.778 210 210 210 255
130.306 165.957 -63.5114 210 210 210 255
130.306 165.957 -61.2447 210 210 210 255
130.306 165.957 -58.978 210 210 210 255
130.306 165.957 -56.7114 210 210 210 255
130.306 165.957 -54.4446 210 210 210 255
130.306 165.957 -52.1779 210 210 210 255
130.306 165.957 -49.9111 210 210 210 255
130.306 165.957 -47.6442 210 210 210 255
130.306 165.957 -45.3772 210 210 210 255
130.306 165.957 -43.1101 210 210 210 255
130.306 165.957 -40.843 210 210 210 255
130.306 165.957 -38.5756 210 210 210 255
130.306 165.957 -36.3082 210 210 210 255
130.306 165.957 -34.0405 210 210 210 255
130.306 165.957 -31.7727 210 210 210 255
130.306 165.957 -29.5047 210 210 210 255
130.306 165.957 -27.2366 210 210 210 255
130.306 165.957 -24.9681 210 210 210 255
130.306 165.957 -22.6996 210 210 210 255
130.306 165.957 -20.4308 210 210 210 255
130.306 165.957 -18.1617 210 210 210 255
130.306 165.957 -15.8925 210 210 210 255
130.306 165.957 -13.6229 210 210 210 255
130.306 165.957 -11.3531 210 210 210 255
130.306 165.957 -9.08307 210 210 210 255
130.306 165.957 -6.81274 210 210 210 255
130.306 165.957 -4.54211 210 210 210 255
130.306 165.957 -2.27124 210 210 210 255
130.306 165.957 0 210 210 210 255
129.048 167.886 -478.026 210 210 210 255
129.048 167.886 -475.215 210 210 210 255
129.048 167.886 -472.413 210 210 210 255
129.048 167.886 -469.618 210 210 210 255
129.048 167.886 -466.832 210 210 210 255
129.048 167.886 -464.053 210 210 210 255
129.048 167.886 -461.283 210 210 210 255
129.048 167.886 -458.52 210 210 210 255
129.048 167.886 -455.764 210 210 210 255
129.048 167.886 -453.016 210 210 210 255
129.048 167.886 -450.276 210 210 210 255
129.048 167.886 -447.543 210 210 210 255
129.048 167.886 -444.818 210 210 210 255
129.048 167.886 -442.099 210 210 210 255
129.048 167.886 -439.388 210 210 210 255
129.048 167.886 -436.684 210 210 210 255
129.048 167.886 -433.987 210 210 210 255
129.048 167.886 -431.297 210 210 210 255
129.048 167.886 -428.614 210 210 210 255
129.048 167.886 -425.938 210 210 210 255
129.048 167.886 -423.268 210 210 210 255
129.048 167.886 -420.606 210 210 210 255
129.048 167.886 -417.949 210 210 210 255
129.048 167.886 -415.3 210 210 210 255
129.048 167.886 -412.657 210 210 210 255
129.048 167.886 -410.02 210 210 210 255
129.048 167.886 -407.389 210 210 210 255
129.048 167.886 -404.765 210 210 210 255
129.048 167.886 -402.147 210 210 210 255
129.048 167.886 -399.535 210 210 210 255
129.048 167.886 -396.929 210 210 210 255
129.048 167.886 -394.329 210 210 210 255
129.048 167.886 -391.735 210 210 210 255
129.048 167.886 -389.147 210 210 210 255
129.048 167.886 -386.564 210 210 210 255
129.048 167.886 -383.988 210 210 210 255
129.048 167.886 -381.417 210 210 210 255
129.048 167.886 -378.851 210 210 210 255
129.048 167.886 -376.291 210 210 210 255
