ply
format ascii 1.0
element vertex 1151
property float x
property float y
property float z
property uchar red
property uchar green
property uchar blue
property uchar alpha
end_header
211.236 -74.8159 -443.182 210 210 210 255
211.236 -74.8159 -440.672 210 210 210 255
211.236 -74.8159 -438.168 210 210 210 255
211.236 -74.8159 -435.671 210 210 210 255
211.236 -74.8159 -433.18 210 210 210 255
211.236 -74.8159 -430.695 210 210 210 255
211.236 -74.8159 -428.217 210 210 210 255
211.236 -74.8159 -425.744 210 210 210 255
211.236 -74.8159 -423.278 210 210 210 255
211.236 -74.8159 -420.818 210 210 210 255
211.236 -74.8159 -418.364 210 210 210 255
211.236 -74.8159 -415.916 210 210 210 255
211.236 -74.8159 -413.474 210 210 210 255
211.236 -74.8159 -411.037 210 210 210 255
211.236 -74.8159 -408.606 210 210 210 255
211.236 -74.8159 -406.181 210 210 210 255
211.236 -74.8159 -403.762 210 210 210 255
211.236 -74.8159 -401.348 210 210 210 255
211.236 -74.8159 -398.939 210 210 210 255
211.236 -74.8159 -396.536 210 210 210 255
211.236 -74.8159 -394.139 210 210 210 255
211.236 -74.8159 -391.746 210 210 210 255
211.236 -74.8159 -389.359 210 210 210 255
211.236 -74.8159 -386.977 210 210 210 255
211.236 -74.8159 -384.6 210 210 210 255
211.236 -74.8159 -382.227 210 210 210 255
211.236 -74.8159 -379.86 210 210 210 255
211.236 -74.8159 -377.498 210 210 210 255
211.236 -74.8159 -375.14 210 210 210 255
211.236 -74.8159 -372.787 210 210 210 255
211.236 -74.8159 -370.439 210 210 210 255
211.236 -74.8159 -368.095 210 210 210 255
211.236 -74.8159 -365.756 210 210 210 255
211.236 -74.8159 -363.421 210 210 210 255
211.236 -74.8159 -361.091 210 210 210 255
211.236 -74.8159 -358.764 210 210 210 255
211.236 -74.8159 -356.442 210 210 210 255
211.236 -74.8159 -354.124 210 210 210 255
211.236 -74.8159 -351.81 210 210 210 255
211.236 -74.8159 -349.501 210 210 210 255
211.236 -74.8159 -347.195 210 210 210 255
211.236 -74.8159 -344.892 210 210 210 255
211.236 -74.8159 -342.594 210 210 210 255
211.236 -74.8159 -340.299 210 210 210 255
211.236 -74.8159 -338.008 210 210 210 255
211.236 -74.8159 -335.72 210 210 210 255
211.236 -74.8159 -333.436 210 210 210 255
211.236 -74.8159 -331.155 210 210 210 255
211.236 -74.8159 -328.877 210 210 210 255
211.236 -74.8159 -326.603 210 210 210 255
211.236 -74.8159 -324.332 210 210 210 255
211.236 -74.8159 -322.063 210 210 210 255
211.236 -74.8159 -319.798 210 210 210 255
211.236 -74.8159 -317.536 210 210 210 255
211.236 -74.8159 -315.276 210 210 210 255
211.236 -74.8159 -313.019 210 210 210 255
211.236 -74.8159 -310.765 210 210 210 255
211.236 -74.8159 -308.513 210 210 210 255
211.236 -74.8159 -306.264 210 210 210 255
211.236 -74.8159 -304.017 210 210 210 255
211.236 -74.8159 -301.773 210 210 210 255
211.236 -74.8159 -299.53 210 210 210 255
211.236 -74.8159 -297.29 210 210 210 255
211.236 -74.8159 -295.052 210 210 210 255
211.236 -74.8159 -292.816 210 210 210 255
211.236 -74.8159 -290.582 210 210 210 255
211.236 -74.8159 -288.349 210 210 210 255
211.236 -74.8159 -286.119 210 210 210 255
211.236 -74.8159 -283.89 210 210 210 255
211.236 -74.8159 -281.662 210 210 210 255
211.236 -74.8159 -279.436 210 210 210 255
211.236 -74.8159 -277.212 210 210 210 255
211.236 -74.8159 -274.988 210 210 210 255
211.236 -74.8159 -272.766 210 210 210 255
211.236 -74.8159 -270.545 210 210 210 255
211.236 -74.8159 -268.325 210 210 210 255
211.236 -74.8159 -266.106 210 210 210 255
211.236 -74.8159 -263.888 210 210 210 255
211.236 -74.8159 -261.671 210 210 210 255
211.236 -74.8159 -259.454 210 210 210 255
211.236 -74.8159 -257.238 210 210 210 255
211.236 -74.8159 -255.022 210 210 210 255
211.236 -74.8159 -252.807 210 210 210 255
211.236 -74.8159 -250.592 210 210 210 255
211.236 -74.8159 -248.378 210 210 210 255
211.236 -74.8159 -246.163 210 210 210 255
211.236 -74.8159 -243.949 210 210 210 255
211.236 -74.8159 -241.735 210 210 210 255
211.236 -74.8159 -239.52 210 210 210 255
211.236 -74.8159 -237.305 210 210 210 255
211.236 -74.8159 -235.09 210 210 210 255
211.236 -74.8159 -232.875 210 210 210 255
211.236 -74.8159 -230.658 210 210 210 255
211.236 -74.8159 -228.442 210 210 210 255
211.236 -74.8159 -226.224 210 210 210 255
211.236 -74.8159 -224.006 210 210 210 255
211.236 -74.8159 -221.787 210 210 210 255
211.236 -74.8159 -219.567 210 210 210 255
211.236 -74.8159 -217.346 210 210 210 255
211.236 -74.8159 -215.124 210 210 210 255
211.236 -74.8159 -212.901 210 210 210 255
211.236 -74.8159 -210.676 210 210 210 255
211.236 -74.8159 -208.449 210 210 210 255
211.236 -74.8159 -206.221 210 210 210 255
211.236 -74.8159 -203.992 210 210 210 255
211.236 -74.8159 -201.761 210 210 210 255
211.236 -74.8159 -199.527 210 210 210 255
211.236 -74.8159 -197.292 210 210 210 255
211.236 -74.8159 -195.055 210 210 210 255
211.236 -74.8159 -192.816 210 210 210 255
211.236 -74.8159 -190.574 210 210 210 255
211.236 -74.8159 -188.33 210 210 210 255
211.236 -74.8159 -186.084 210 210 210 255
211.236 -74.8159 -183.835 210 210 210 255
211.236 -74.8159 -181.583 210 210 210 255
211.236 -74.8159 -179.329 210 210 210 255
211.236 -74.8159 -177.072 210 210 210 255
211.236 -74.8159 -174.812 210 210 210 255
211.236 -74.8159 -172.549 210 210 210 255
211.236 -74.8159 -170.282 210 210 210 255
211.236 -74.8159 -168.013 210 210 210 255
211.236 -74.8159 -165.74 210 210 210 255
211.236 -74.8159 -163.463 210 210 210 255
211.236 -74.8159 -161.183 210 210 210 255
211.236 -74.8159 -158.899 210 210 210 255
211.236 -74.8159 -156.612 210 210 210 255
211.236 -74.8159 -154.32 210 210 210 255
211.236 -74.8159 -152.025 210 210 210 255
211.236 -74.8159 -149.725 210 210 210 255
211.236 -74.8159 -147.421 210 210 210 255
211.236 -74.8159 -145.113 210 210 210 255
211.236 -74.8159 -142.801 210 210 210 255
211.236 -74.8159 -140.484 210 210 210 255
211.236 -74.8159 -138.162 210 210 210 255
211.236 -74.8159 -135.835 210 210 210 255
211.236 -74.8159 -133.504 210 210 210 255
211.236 -74.8159 -131.168 210 210 210 255
211.236 -74.8159 -128.826 210 210 210 255
211.236 -74.8159 -126.48 210 210 210 255
211.236 -74.8159 -124.128 210 210 210 255
211.236 -74.8159 -121.771 210 210 210 255
211.236 -74.8159 -119.408 210 210 210 255
211.236 -74.8159 -117.039 210 210 210 255
211.236 -74.8159 -114.665 210 210 210 255
211.236 -74.8159 -112.285 210 210 210 255
211.236 -74.8159 -109.899 210 210 210 255
211.236 -74.8159 -107.507 210 210 210 255
211.236 -74.8159 -105.109 210 210 210 255
211.236 -74.8159 -102.704 210 210 210 255
211.236 -74.8159 -100.293 210 210 210 255
211.236 -74.8159 -97.8752 210 210 210 255
211.236 -74.8159 -95.4509 210 210 210 255
211.236 -74.8159 -93.0201 210 210 210 255
211.236 -74.8159 -90.582 210 210 210 255
211.236 -74.8159 -88.1371 210 210 210 255
211.236 -74.8159 -85.6853 210 210 210 255
211.236 -74.8159 -83.226 210 210 210 255
211.236 -74.8159 -80.7595 210 210 210 255
211.236 -74.8159 -78.2855 210 210 210 255
211.236 -74.8159 -75.8038 210 210 210 255
211.236 -74.8159 -73.3143 210 210 210 255
211.236 -74.8159 -70.8173 210 210 210 255
211.236 -74.8159 -68.3123 210 210 210 255
211.236 -74.8159 -65.7991 210 210 210 255
211.236 -74.8159 -63.2778 210 210 210 255
211.236 -74.8159 -60.7484 210 210 210 255
211.236 -74.8159 -58.2103 210 210 210 255
211.236 -74.8159 -55.6636 210 210 210 255
211.236 -74.8159 -53.1086 210 210 210 255
211.236 -74.8159 -50.5447 210 210 210 255
211.236 -74.8159 -47.9718 210 210 210 255
211.236 -74.8159 -45.39 210 210 210 255
211.236 -74.8159 -42.7989 210 210 210 255
211.236 -74.8159 -40.1987 210 210 210 255
211.236 -74.8159 -37.5892 210 210 210 255
211.236 -74.8159 -34.97 210 210 210 255
211.236 -74.8159 -32.3411 210 210 210 255
211.236 -74.8159 -29.7028 210 210 210 255
211.236 -74.8159 -27.0544 210 210 210 255
211.236 -74.8159 -24.3959 210 210 210 255
211.236 -74.8159 -21.7274 210 210 210 255
211.236 -74.8159 -19.0487 210 210 210 255
211.236 -74.8159 -16.3597 210 210 210 255
211.236 -74.8159 -13.66 210 210 210 255
211.236 -74.8159 -10.9498 210 210 210 255
211.236 -74.8159 -8.2287 210 210 210 255
211.236 -74.8159 -5.49701 210 210 210 255
211.236 -74.8159 -2.75409 210 210 210 255
211.236 -74.8159 -6.10352e-05 210 210 210 255
211.24 -72.9537 -470.851 210 210 210 255
211.24 -72.9537 -468.274 210 210 210 255
211.24 -72.9537 -465.705 210 210 210 255
211.24 -72.9537 -463.142 210 210 210 255
211.24 -72.9537 -460.587 210 210 210 255
211.24 -72.9537 -458.038 210 210 210 255
211.24 -72.9537 -455.497 210 210 210 255
211.24 -72.9537 -452.962 210 210 210 255
211.24 -72.9537 -450.433 210 210 210 255
211.24 -72.9537 -447.912 210 210 210 255
211.24 -72.9537 -445.397 210 210 210 255
211.24 -72.9537 -442.888 210 210 210 255
211.24 -72.9537 -440.386 210 210 210 255
211.24 -72.9537 -437.891 210 210 210 255
211.24 -72.9537 -435.402 210 210 210 255
211.24 -72.9537 -432.919 210 210 210 255
211.24 -72.9537 -430.442 210 210 210 255
211.24 -72.9537 -427.972 210 210 210 255
211.24 -72.9537 -425.507 210 210 210 255
211.24 -72.9537 -423.049 210 210 210 255
211.24 -72.9537 -420.596 210 210 210 255
211.24 -72.9537 -418.15 210 210 210 255
211.24 -72.9537 -415.709 210 210 210 255
211.24 -72.9537 -413.275 210 210 210 255
211.24 -72.9537 -410.845 210 210 210 255
211.24 -72.9537 -408.422 210 210 210 255
211.24 -72.9537 -406.004 210 210 210 255
211.24 -72.9537 -403.592 210 210 210 255
211.24 -72.9537 -401.185 210 210 210 255
211.24 -72.9537 -398.783 210 210 210 255
211.24 -72.9537 -396.387 210 210 210 255
211.24 -72.9537 -393.996 210 210 210 255
211.24 -72.9537 -391.611 210 210 210 255
211.24 -72.9537 -389.23 210 210 210 255
211.24 -72.9537 -386.855 210 210 210 255
211.24 -72.9537 -384.484 210 210 210 255
211.24 -72.9537 -382.119 210 210 210 255
211.24 -72.9537 -379.758 210 210 210 255
211.24 -72.9537 -377.402 210 210 210 255
211.24 -72.9537 -375.051 210 210 210 255
211.24 -72.9537 -372.704 210 210 210 255
211.24 -72.9537 -370.362 210 210 210 255
211.24 -72.9537 -368.024 210 210 210 255
211.24 -72.9537 -365.691 210 210 210 255
211.24 -72.9537 -363.362 210 210 210 255
211.24 -72.9537 -361.038 210 210 210 255
211.24 -72.9537 -358.717 210 210 210 255
211.24 -72.9537 -356.401 210 210 210 255
211.24 -72.9537 -354.089 210 210 210 255
211.24 -72.9537 -351.781 210 210 210 255
211.24 -72.9537 -349.476 210 210 210 255
211.24 -72.9537 -347.176 210 210 210 255
211.24 -72.9537 -344.879 210 210 210 255
211.24 -72.9537 -342.586 210 210 210 255
211.24 -72.9537 -340.297 210 210 210 255
211.24 -72.9537 -338.011 210 210 210 255
211.24 -72.9537 -335.729 210 210 210 255
211.24 -72.9537 -333.449 210 210 210 255
211.24 -72.9537 -331.174 210 210 210 255
211.24 -72.9537 -328.901 210 210 210 255
211.24 -72.9537 -326.632 210 210 210 255
211.24 -72.9537 -324.365 210 210 210 255
211.24 -72.9537 -322.102 210 210 210 255
211.24 -72.9537 -319.842 210 210 210 255
211.24 -72.9537 -317.584 210 210 210 255
211.24 -72.9537 -315.329 210 210 210 255
211.24 -72.9537 -313.077 210 210 210 255
211.24 -72.9537 -310.827 210 210 210 255
211.24 -72.9537 -308.58 210 210 210 255
211.24 -72.9537 -306.336 210 210 210 255
211.24 -72.9537 -304.093 210 210 210 255
211.24 -72.9537 -301.853 210 210 210 255
211.24 -72.9537 -299.615 210 210 210 255
211.24 -72.9537 -297.379 210 210 210 255
211.24 -72.9537 -295.146 210 210 210 255
211.24 -72.9537 -292.914 210 210 210 255
211.24 -72.9537 -290.684 210 210 210 255
211.24 -72.9537 -288.455 210 210 210 255
211.24 -72.9537 -286.229 210 210 210 255
211.24 -72.9537 -284.004 210 210 210 255
211.24 -72.9537 -281.78 210 210 210 255
211.24 -72.9537 -279.558 210 210 210 255
211.24 -72.9537 -277.337 210 210 210 255
211.24 -72.9537 -275.118 210 210 210 255
211.24 -72.9537 -272.899 210 210 210 255
211.24 -72.9537 -270.682 210 210 210 255
211.24 -72.9537 -268.465 210 210 210 255
211.24 -72.9537 -266.25 210 210 210 255
211.24 -72.9537 -264.035 210 210 210 255
211.24 -72.9537 -261.821 210 210 210 255
211.24 -72.9537 -259.608 210 210 210 255
211.24 -72.9537 -257.395 210 210 210 255
211.24 -72.9537 -255.183 210 210 210 255
211.24 -72.9537 -252.971 210 210 210 255
211.24 -72.9537 -250.759 210 210 210 255
211.24 -72.9537 -248.548 210 210 210 255
211.24 -72.9537 -246.336 210 210 210 255
211.24 -72.9537 -244.125 210 210 210 255
211.24 -72.9537 -241.913 210 210 210 255
211.24 -72.9537 -239.701 210 210 210 255
211.24 -72.9537 -237.489 210 210 210 255
211.24 -72.9537 -235.277 210 210 210 255
211.24 -72.9537 -233.064 210 210 210 255
211.24 -72.9537 -230.85 210 210 210 255
211.24 -72.9537 -228.636 210 210 210 255
211.24 -72.9537 -226.421 210 210 210 255
211.24 -72.9537 -224.205 210 210 210 255
211.24 -72.9537 -221.989 210 210 210 255
211.24 -72.9537 -219.771 210 210 210 255
211.24 -72.9537 -217.552 210 210 210 255
211.24 -72.9537 -215.332 210 210 210 255
211.24 -72.9537 -213.11 210 210 210 255
211.24 -72.9537 -210.887 210 210 210 255
211.24 -72.9537 -208.663 210 210 210 255
211.24 -72.9537 -206.437 210 210 210 255
211.24 -72.9537 -204.209 210 210 210 255
211.24 -72.9537 -201.979 210 210 210 255
211.24 -72.9537 -199.748 210 210 210 255
211.24 -72.9537 -197.514 210 210 210 255
211.24 -72.9537 -195.278 210 210 210 255
211.24 -72.9537 -193.04 210 210 210 255
211.24 -72.9537 -190.8 210 210 210 255
211.24 -72.9537 -188.558 210 210 210 255
211.24 -72.9537 -186.312 210 210 210 255
211.24 -72.9537 -184.064 210 210 210 255
211.24 -72.9537 -181.814 210 210 210 255
211.24 -72.9537 -179.56 210 210 210 255
211.24 -72.9537 -177.304 210 210 210 255
211.24 -72.9537 -175.045 210 210 210 255
211.24 -72.9537 -172.782 210 210 210 255
211.24 -72.9537 -170.516 210 210 210 255
211.24 -72.9537 -168.247 210 210 210 255
211.24 -72.9537 -165.974 210 210 210 255
211.24 -72.9537 -163.698 210 210 210 255
211.24 -72.9537 -161.418 210 210 210 255
211.24 -72.9537 -159.135 210 210 210 255
211.24 -72.9537 -156.847 210 210 210 255
211.24 -72.9537 -154.556 210 210 210 255
211.24 -72.9537 -152.26 210 210 210 255
211.24 -72.9537 -149.96 210 210 210 255
211.24 -72.9537 -147.656 210 210 210 255
211.24 -72.9537 -145.348 210 210 210 255
211.24 -72.9537 -143.035 210 210 210 255
211.24 -72.9537 -140.717 210 210 210 255
211.24 -72.9537 -138.395 210 210 210 255
211.24 -72.9537 -136.067 210 210 210 255
211.24 -72.9537 -133.735 210 210 210 255
211.24 -72.9537 -131.398 210 210 210 255
211.24 -72.9537 -129.055 210 210 210 255
211.24 -72.9537 -126.707 210 210 210 255
211.24 -72.9537 -124.354 210 210 210 255
211.24 -72.9537 -121.995 210 210 210 255
211.24 -72.9537 -119.631 210 210 210 255
211.24 -72.9537 -117.261 210 210 210 255
211.24 -72.9537 -114.885 210 210 210 255
211.24 -72.9537 -112.503 210 210 210 255
211.24 -72.9537 -110.115 210 210 210 255
211.24 -72.9537 -107.721 210 210 210 255
211.24 -72.9537 -105.32 210 210 210 255
211.24 -72.9537 -102.913 210 210 210 255
211.24 -72.9537 -100.5 210 210 210 255
211.24 -72.9537 -98.0796 210 210 210 255
211.24 -72.9537 -95.6526 210 210 210 255
211.24 -72.9537 -93.2188 210 210 210 255
211.24 -72.9537 -90.7779 210 210 210 255
211.24 -72.9537 -88.3299 210 210 210 255
211.24 -72.9537 -85.8748 210 210 210 255
211.24 -72.9537 -83.4122 210 210 210 255
211.24 -72.9537 -80.9421 210 210 210 255
211.24 -72.9537 -78.4645 210 210 210 255
211.24 -72.9537 -75.9791 210 210 210 255
211.24 -72.9537 -73.4858 210 210 210 255
211.24 -72.9537 -70.9847 210 210 210 255
211.24 -72.9537 -68.4755 210 210 210 255
211.24 -72.9537 -65.9582 210 210 210 255
211.24 -72.9537 -63.4323 210 210 210 255
211.24 -72.9537 -60.8982 210 210 210 255
211.24 -72.9537 -58.3555 210 210 210 255
211.24 -72.9537 -55.804 210 210 210 255
211.24 -72.9537 -53.2438 210 210 210 255
211.24 -72.9537 -50.6747 210 210 210 255
211.24 -72.9537 -48.0966 210 210 210 255
211.24 -72.9537 -45.5093 210 210 210 255
211.24 -72.9537 -42.9125 210 210 210 255
211.24 -72.9537 -40.3066 210 210 210 255
211.24 -72.9537 -37.6908 210 210 210 255
211.24 -72.9537 -35.0656 210 210 210 255
211.24 -72.9537 -32.4305 210 210 210 255
211.24 -72.9537 -29.7857 210 210 210 255
211.24 -72.9537 -27.1306 210 210 210 255
211.24 -72.9537 -24.4654 210 210 210 255
211.24 -72.9537 -21.79 210 210 210 255
211.24 -72.9537 -19.104 210 210 210 255
211.24 -72.9537 -16.4075 210 210 210 255
211.24 -72.9537 -13.7003 210 210 210 255
211.24 -72.9537 -10.9824 210 210 210 255
211.24 -72.9537 -8.25354 210 210 210 255
211.24 -72.9537 -5.51361 210 210 210 255
211.24 -72.9537 -2.76245 210 210 210 255
211.24 -72.9537 -6.10352e-05 210 210 210 255
211.225 -71.0942 -470.46 210 210 210 255
211.225 -71.0942 -467.893 210 210 210 255
211.225 -71.0942 -465.332 210 210 210 255
211.225 -71.0942 -462.779 210 210 210 255
211.225 -71.0942 -460.233 210 210 210 255
211.225 -71.0942 -457.693 210 210 210 255
211.225 -71.0942 -455.16 210 210 210 255
211.225 -71.0942 -452.634 210 210 210 255
211.225 -71.0942 -450.114 210 210 210 255
211.225 -71.0942 -447.601 210 210 210 255
211.225 -71.0942 -445.095 210 210 210 255
211.225 -71.0942 -442.595 210 210 210 255
211.225 -71.0942 -440.101 210 210 210 255
211.225 -71.0942 -437.614 210 210 210 255
211.225 -71.0942 -435.133 210 210 210 255
211.225 -71.0942 -432.658 210 210 210 255
211.225 -71.0942 -430.189 210 210 210 255
211.225 -71.0942 -427.727 210 210 210 255
211.225 -71.0942 -425.27 210 210 210 255
211.225 -71.0942 -422.819 210 210 210 255
211.225 -71.0942 -420.375 210 210 210 255
211.225 -71.0942 -417.936 210 210 210 255
211.225 -71.0942 -415.503 210 210 210 255
211.225 -71.0942 -413.075 210 210 210 255
211.225 -71.0942 -410.653 210 210 210 255
211.225 -71.0942 -408.237 210 210 210 255
211.225 -71.0942 -405.827 210 210 210 255
211.225 -71.0942 -403.421 210 210 210 255
211.225 -71.0942 -401.022 210 210 210 255
211.225 -71.0942 -398.627 210 210 210 255
211.225 -71.0942 -396.238 210 210 210 255
211.225 -71.0942 -393.854 210 210 210 255
211.225 -71.0942 -391.475 210 210 210 255
211.225 -71.0942 -389.101 210 210 210 255
211.225 -71.0942 -386.732 210 210 210 255
211.225 -71.0942 -384.368 210 210 210 255
211.225 -71.0942 -382.009 210 210 210 255
211.225 -71.0942 -379.655 210 210 210 255
211.225 -71.0942 -377.305 210 210 210 255
211.225 -71.0942 -374.96 210 210 210 255
211.225 -71.0942 -372.619 210 210 210 255
211.225 -71.0942 -370.283 210 210 210 255
211.225 -71.0942 -367.952 210 210 210 255
211.225 -71.0942 -365.625 210 210 210 255
211.225 -71.0942 -363.302 210 210 210 255
211.225 -71.0942 -360.983 210 210 210 255
211.225 -71.0942 -358.669 210 210 210 255
211.225 -71.0942 -356.358 210 210 210 255
211.225 -71.0942 -354.052 210 210 210 255
211.225 -71.0942 -351.749 210 210 210 255
211.225 -71.0942 -349.451 210 210 210 255
211.225 -71.0942 -347.156 210 210 210 255
211.225 -71.0942 -344.864 210 210 210 255
211.225 -71.0942 -342.577 210 210 210 255
211.225 -71.0942 -340.293 210 210 210 255
211.225 -71.0942 -338.012 210 210 210 255
211.225 -71.0942 -335.735 210 210 210 255
211.225 -71.0942 -333.461 210 210 210 255
211.225 -71.0942 -331.19 210 210 210 255
211.225 -71.0942 -328.923 210 210 210 255
211.225 -71.0942 -326.659 210 210 210 255
211.225 -71.0942 -324.397 210 210 210 255
211.225 -71.0942 -322.139 210 210 210 255
211.225 -71.0942 -319.883 210 210 210 255
211.225 -71.0942 -317.63 210 210 210 255
211.225 -71.0942 -315.38 210 210 210 255
211.225 -71.0942 -313.133 210 210 210 255
211.225 -71.0942 -310.888 210 210 210 255
211.225 -71.0942 -308.645 210 210 210 255
211.225 -71.0942 -306.405 210 210 210 255
211.225 -71.0942 -304.167 210 210 210 255
211.225 -71.0942 -301.931 210 210 210 255
211.225 -71.0942 -299.698 210 210 210 255
211.225 -71.0942 -297.466 210 210 210 255
211.225 -71.0942 -295.236 210 210 210 255
211.225 -71.0942 -293.009 210 210 210 255
211.225 -71.0942 -290.783 210 210 210 255
211.225 -71.0942 -288.558 210 210 210 255
211.225 -71.0942 -286.336 210 210 210 255
211.225 -71.0942 -284.115 210 210 210 255
211.225 -71.0942 -281.895 210 210 210 255
211.225 -71.0942 -279.677 210 210 210 255
211.225 -71.0942 -277.46 210 210 210 255
211.225 -71.0942 -275.244 210 210 210 255
211.225 -71.0942 -273.029 210 210 210 255
211.225 -71.0942 -270.815 210 210 210 255
211.225 -71.0942 -268.602 210 210 210 255
211.225 -71.0942 -266.39 210 210 210 255
211.225 -71.0942 -264.179 210 210 210 255
211.225 -71.0942 -261.969 210 210 210 255
211.225 -71.0942 -259.759 210 210 210 255
211.225 -71.0942 -257.549 210 210 210 255
211.225 -71.0942 -255.34 210 210 210 255
211.225 -71.0942 -253.131 210 210 210 255
211.225 -71.0942 -250.922 210 210 210 255
211.225 -71.0942 -248.714 210 210 210 255
211.225 -71.0942 -246.505 210 210 210 255
211.225 -71.0942 -244.297 210 210 210 255
211.225 -71.0942 -242.088 210 210 210 255
211.225 -71.0942 -239.879 210 210 210 255
211.225 -71.0942 -237.669 210 210 210 255
211.225 -71.0942 -235.459 210 210 210 255
211.225 -71.0942 -233.249 210 210 210 255
211.225 -71.0942 -231.038 210 210 210 255
211.225 -71.0942 -228.826 210 210 210 255
211.225 -71.0942 -226.614 210 210 210 255
211.225 -71.0942 -224.4 210 210 210 255
211.225 -71.0942 -222.186 210 210 210 255
211.225 -71.0942 -219.97 210 210 210 255
211.225 -71.0942 -217.754 210 210 210 255
211.225 -71.0942 -215.535 210 210 210 255
211.225 -71.0942 -213.316 210 210 210 255
211.225 -71.0942 -211.095 210 210 210 255
211.225 -71.0942 -208.872 210 210 210 255
211.225 -71.0942 -206.648 210 210 210 255
211.225 -71.0942 -204.422 210 210 210 255
211.225 -71.0942 -202.194 210 210 210 255
211.225 -71.0942 -199.964 210 210 210 255
211.225 -71.0942 -197.732 210 210 210 255
211.225 -71.0942 -195.497 210 210 210 255
211.225 -71.0942 -193.261 210 210 210 255
211.225 -71.0942 -191.022 210 210 210 255
211.225 -71.0942 -188.78 210 210 210 255
211.225 -71.0942 -186.536 210 210 210 255
211.225 -71.0942 -184.289 210 210 210 255
211.225 -71.0942 -182.04 210 210 210 255
211.225 -71.0942 -179.787 210 210 210 255
211.225 -71.0942 -177.532 210 210 210 255
211.225 -71.0942 -175.273 210 210 210 255
211.225 -71.0942 -173.011 210 210 210 255
211.225 -71.0942 -170.746 210 210 210 255
211.225 -71.0942 -168.477 210 210 210 255
211.225 -71.0942 -166.205 210 210 210 255
211.225 -71.0942 -163.929 210 210 210 255
211.225 -71.0942 -161.649 210 210 210 255
211.225 -71.0942 -159.366 210 210 210 255
211.225 -71.0942 -157.079 210 210 210 255
211.225 -71.0942 -154.787 210 210 210 255
211.225 -71.0942 -152.491 210 210 210 255
211.225 -71.0942 -150.191 210 210 210 255
211.225 -71.0942 -147.887 210 210 210 255
211.225 -71.0942 -145.578 210 210 210 255
211.225 -71.0942 -143.264 210 210 210 255
211.225 -71.0942 -140.946 210 210 210 255
211.225 -71.0942 -138.623 210 210 210 255
211.225 -71.0942 -136.295 210 210 210 255
211.225 -71.0942 -133.962 210 210 210 255
211.225 -71.0942 -131.623 210 210 210 255
211.225 -71.0942 -129.28 210 210 210 255
211.225 -71.0942 -126.931 210 210 210 255
211.225 -71.0942 -124.576 210 210 210 255
211.225 -71.0942 -122.216 210 210 210 255
211.225 -71.0942 -119.85 210 210 210 255
211.225 -71.0942 -117.478 210 210 210 255
211.225 -71.0942 -115.101 210 210 210 255
211.225 -71.0942 -112.717 210 210 210 255
211.225 -71.0942 -110.327 210 210 210 255
211.225 -71.0942 -107.931 210 210 210 255
211.225 -71.0942 -105.528 210 210 210 255
211.225 -71.0942 -103.119 210 210 210 255
211.225 -71.0942 -100.703 210 210 210 255
211.225 -71.0942 -98.28 210 210 210 255
211.225 -71.0942 -95.8505 210 210 210 255
211.225 -71.0942 -93.4138 210 210 210 255
211.225 -71.0942 -90.97 210 210 210 255
211.225 -71.0942 -88.519 210 210 210 255
211.225 -71.0942 -86.0607 210 210 210 255
211.225 -71.0942 -83.5948 210 210 210 255
211.225 -71.0942 -81.1215 210 210 210 255
211.225 -71.0942 -78.6402 210 210 210 255
211.225 -71.0942 -76.1511 210 210 210 255
211.225 -71.0942 -73.6542 210 210 210 255
211.225 -71.0942 -71.1491 210 210 210 255
211.225 -71.0942 -68.6357 210 210 210 255
211.225 -71.0942 -66.1141 210 210 210 255
211.225 -71.0942 -63.5839 210 210 210 255
211.225 -71.0942 -61.0455 210 210 210 255
211.225 -71.0942 -58.498 210 210 210 255
211.225 -71.0942 -55.9417 210 210 210 255
211.225 -71.0942 -53.3766 210 210 210 255
211.225 -71.0942 -50.8024 210 210 210 255
211.225 -71.0942 -48.2189 210 210 210 255
211.225 -71.0942 -45.6263 210 210 210 255
211.225 -71.0942 -43.0241 210 210 210 255
211.225 -71.0942 -40.4123 210 210 210 255
211.225 -71.0942 -37.7907 210 210 210 255
211.225 -71.0942 -35.1594 210 210 210 255
211.225 -71.0942 -32.5182 210 210 210 255
211.225 -71.0942 -29.8669 210 210 210 255
211.225 -71.0942 -27.2054 210 210 210 255
211.225 -71.0942 -24.5334 210 210 210 255
211.225 -71.0942 -21.8512 210 210 210 255
211.225 -71.0942 -19.1583 210 210 210 255
211.225 -71.0942 -16.4545 210 210 210 255
211.225 -71.0942 -13.7399 210 210 210 255
211.225 -71.0942 -11.0144 210 210 210 255
211.225 -71.0942 -8.27777 210 210 210 255
211.225 -71.0942 -5.53003 210 210 210 255
211.225 -71.0942 -2.77081 210 210 210 255
211.225 -71.0942 0 210 210 210 255
211.189 -69.2373 -470.071 210 210 210 255
211.189 -69.2373 -467.513 210 210 210 255
211.189 -69.2373 -464.962 210 210 210 255
211.189 -69.2373 -462.417 210 210 210 255
211.189 -69.2373 -459.88 210 210 210 255
211.189 -69.2373 -457.349 210 210 210 255
211.189 -69.2373 -454.825 210 210 210 255
211.189 -69.2373 -452.308 210 210 210 255
211.189 -69.2373 -449.797 210 210 210 255
211.189 -69.2373 -447.292 210 210 210 255
211.189 -69.2373 -444.794 210 210 210 255
211.189 -69.2373 -442.302 210 210 210 255
211.189 -69.2373 -439.817 210 210 210 255
211.189 -69.2373 -437.338 210 210 210 255
211.189 -69.2373 -434.865 210 210 210 255
211.189 -69.2373 -432.398 210 210 210 255
211.189 -69.2373 -429.937 210 210 210 255
211.189 -69.2373 -427.482 210 210 210 255
211.189 -69.2373 -425.033 210 210 210 255
211.189 -69.2373 -422.591 210 210 210 255
211.189 -69.2373 -420.153 210 210 210 255
211.189 -69.2373 -417.722 210 210 210 255
211.189 -69.2373 -415.296 210 210 210 255
211.189 -69.2373 -412.876 210 210 210 255
211.189 -69.2373 -410.462 210 210 210 255
211.189 -69.2373 -408.053 210 210 210 255
211.189 -69.2373 -405.649 210 210 210 255
211.189 -69.2373 -403.251 210 210 210 255
211.189 -69.2373 -400.858 210 210 210 255
211.189 -69.2373 -398.471 210 210 210 255
211.189 -69.2373 -396.088 210 210 210 255
211.189 -69.2373 -393.711 210 210 210 255
211.189 -69.2373 -391.339 210 210 210 255
211.189 -69.2373 -388.971 210 210 210 255
211.189 -69.2373 -386.609 210 210 210 255
211.189 -69.2373 -384.252 210 210 210 255
211.189 -69.2373 -381.899 210 210 210 255
211.189 -69.2373 -379.551 210 210 210 255
211.189 -69.2373 -377.207 210 210 210 255
211.189 -69.2373 -374.869 210 210 210 255
211.189 -69.2373 -372.534 210 210 210 255
211.189 -69.2373 -370.204 210 210 210 255
211.189 -69.2373 -367.879 210 210 210 255
211.189 -69.2373 -365.558 210 210 210 255
211.189 -69.2373 -363.241 210 210 210 255
211.189 -69.2373 -360.928 210 210 210 255
211.189 -69.2373 -358.619 210 210 210 255
211.189 -69.2373 -356.314 210 210 210 255
211.189 -69.2373 -354.014 210 210 210 255
211.189 -69.2373 -351.717 210 210 210 255
211.189 -69.2373 -349.423 210 210 210 255
211.189 -69.2373 -347.134 210 210 210 255
211.189 -69.2373 -344.848 210 210 210 255
211.189 -69.2373 -342.566 210 210 210 255
211.189 -69.2373 -340.287 210 210 210 255
211.189 -69.2373 -338.012 210 210 210 255
211.189 -69.2373 -335.74 210 210 210 255
211.189 -69.2373 -333.471 210 210 210 255
211.189 -69.2373 -331.205 210 210 210 255
211.189 -69.2373 -328.943 210 210 210 255
211.189 -69.2373 -326.684 210 210 210 255
211.189 -69.2373 -324.427 210 210 210 255
211.189 -69.2373 -322.173 210 210 210 255
211.189 -69.2373 -319.923 210 210 210 255
211.189 -69.2373 -317.674 210 210 210 255
211.189 -69.2373 -315.429 210 210 210 255
211.189 -69.2373 -313.186 210 210 210 255
211.189 -69.2373 -310.945 210 210 210 255
211.189 -69.2373 -308.707 210 210 210 255
211.189 -69.2373 -306.472 210 210 210 255
211.189 -69.2373 -304.238 210 210 210 255
211.189 -69.2373 -302.007 210 210 210 255
211.189 -69.2373 -299.777 210 210 210 255
211.189 -69.2373 -297.55 210 210 210 255
211.189 -69.2373 -295.324 210 210 210 255
211.189 -69.2373 -293.101 210 210 210 255
211.189 -69.2373 -290.879 210 210 210 255
211.189 -69.2373 -288.659 210 210 210 255
211.189 -69.2373 -286.44 210 210 210 255
211.189 -69.2373 -284.223 210 210 210 255
211.189 -69.2373 -282.007 210 210 210 255
211.189 -69.2373 -279.792 210 210 210 255
211.189 -69.2373 -277.579 210 210 210 255
211.189 -69.2373 -275.367 210 210 210 255
211.189 -69.2373 -273.156 210 210 210 255
211.189 -69.2373 -270.945 210 210 210 255
211.189 -69.2373 -268.736 210 210 210 255
211.189 -69.2373 -266.527 210 210 210 255
211.189 -69.2373 -264.32 210 210 210 255
211.189 -69.2373 -262.112 210 210 210 255
211.189 -69.2373 -259.905 210 210 210 255
211.189 -69.2373 -257.699 210 210 210 255
211.189 -69.2373 -255.493 210 210 210 255
211.189 -69.2373 -253.287 210 210 210 255
211.189 -69.2373 -251.082 210 210 210 255
211.189 -69.2373 -248.876 210 210 210 255
211.189 -69.2373 -246.67 210 210 210 255
211.189 -69.2373 -244.465 210 210 210 255
211.189 -69.2373 -242.259 210 210 210 255
211.189 -69.2373 -240.052 210 210 210 255
211.189 -69.2373 -237.846 210 210 210 255
211.189 -69.2373 -235.638 210 210 210 255
211.189 -69.2373 -233.43 210 210 210 255
211.189 -69.2373 -231.222 210 210 210 255
211.189 -69.2373 -229.013 210 210 210 255
211.189 -69.2373 -226.802 210 210 210 255
211.189 -69.2373 -224.591 210 210 210 255
211.189 -69.2373 -222.379 210 210 210 255
211.189 -69.2373 -220.166 210 210 210 255
211.189 -69.2373 -217.951 210 210 210 255
211.189 -69.2373 -215.735 210 210 210 255
211.189 -69.2373 -213.517 210 210 210 255
211.189 -69.2373 -211.298 210 210 210 255
211.189 -69.2373 -209.077 210 210 210 255
211.189 -69.2373 -206.855 210 210 210 255
211.189 -69.2373 -204.63 210 210 210 255
211.189 -69.2373 -202.404 210 210 210 255
211.189 -69.2373 -200.175 210 210 210 255
211.189 -69.2373 -197.945 210 210 210 255
211.189 -69.2373 -195.712 210 210 210 255
211.189 -69.2373 -193.477 210 210 210 255
211.189 -69.2373 -191.239 210 210 210 255
211.189 -69.2373 -188.999 210 210 210 255
211.189 -69.2373 -186.756 210 210 210 255
211.189 -69.2373 -184.51 210 210 210 255
211.189 -69.2373 -182.261 210 210 210 255
211.189 -69.2373 -180.009 210 210 210 255
211.189 -69.2373 -177.755 210 210 210 255
211.189 -69.2373 -175.497 210 210 210 255
211.189 -69.2373 -173.235 210 210 210 255
211.189 -69.2373 -170.971 210 210 210 255
211.189 -69.2373 -168.703 210 210 210 255
211.189 -69.2373 -166.431 210 210 210 255
211.189 -69.2373 -164.155 210 210 210 255
211.189 -69.2373 -161.876 210 210 210 255
211.189 -69.2373 -159.592 210 210 210 255
211.189 -69.2373 -157.305 210 210 210 255
211.189 -69.2373 -155.013 210 210 210 255
211.189 -69.2373 -152.718 210 210 210 255
211.189 -69.2373 -150.417 210 210 210 255
211.189 -69.2373 -148.113 210 210 210 255
211.189 -69.2373 -145.803 210 210 210 255
211.189 -69.2373 -143.489 210 210 210 255
211.189 -69.2373 -141.171 210 210 210 255
211.189 -69.2373 -138.847 210 210 210 255
211.189 -69.2373 -136.518 210 210 210 255
211.189 -69.2373 -134.184 210 210 210 255
211.189 -69.2373 -131.844 210 210 210 255
211.189 -69.2373 -129.5 210 210 210 255
211.189 -69.2373 -127.15 210 210 210 255
211.189 -69.2373 -124.794 210 210 210 255
211.189 -69.2373 -122.432 210 210 210 255
211.189 -69.2373 -120.065 210 210 210 255
211.189 -69.2373 -117.692 210 210 210 255
211.189 -69.2373 -115.312 210 210 210 255
211.189 -69.2373 -112.927 210 210 210 255
211.189 -69.2373 -110.535 210 210 210 255
211.189 -69.2373 -108.136 210 210 210 255
211.189 -69.2373 -105.732 210 210 210 255
211.189 -69.2373 -103.32 210 210 210 255
211.189 -69.2373 -100.902 210 210 210 255
211.189 -69.2373 -98.4766 210 210 210 255
211.189 -69.2373 -96.0443 210 210 210 255
211.189 -69.2373 -93.6049 210 210 210 255
211.189 -69.2373 -91.1584 210 210 210 255
211.189 -69.2373 -88.7044 210 210 210 255
211.189 -69.2373 -86.2429 210 210 210 255
211.189 -69.2373 -83.7739 210 210 210 255
211.189 -69.2373 -81.2971 210 210 210 255
211.189 -69.2373 -78.8124 210 210 210 255
211.189 -69.2373 -76.3199 210 210 210 255
211.189 -69.2373 -73.819 210 210 210 255
211.189 -69.2373 -71.3101 210 210 210 255
211.189 -69.2373 -68.7928 210 210 210 255
211.189 -69.2373 -66.267 210 210 210 255
211.189 -69.2373 -63.7327 210 210 210 255
211.189 -69.2373 -61.1895 210 210 210 255
211.189 -69.2373 -58.6377 210 210 210 255
211.189 -69.2373 -56.0767 210 210 210 255
211.189 -69.2373 -53.5068 210 210 210 255
211.189 -69.2373 -50.9275 210 210 210 255
211.189 -69.2373 -48.3389 210 210 210 255
211.189 -69.2373 -45.7408 210 210 210 255
211.189 -69.2373 -43.1333 210 210 210 255
211.189 -69.2373 -40.5159 210 210 210 255
211.189 -69.2373 -37.8886 210 210 210 255
211.189 -69.2373 -35.2513 210 210 210 255
211.189 -69.2373 -32.6042 210 210 210 255
211.189 -69.2373 -29.9465 210 210 210 255
211.189 -69.2373 -27.2786 210 210 210 255
211.189 -69.2373 -24.6002 210 210 210 255
211.189 -69.2373 -21.9111 210 210 210 255
211.189 -69.2373 -19.2113 210 210 210 255
211.189 -69.2373 -16.5006 210 210 210 255
211.189 -69.2373 -13.7789 210 210 210 255
211.189 -69.2373 -11.046 210 210 210 255
211.189 -69.2373 -8.30164 210 210 210 255
211.189 -69.2373 -5.54602 210 210 210 255
211.189 -69.2373 -2.77887 210 210 210 255
211.189 -69.2373 0 210 210 210 255
211.134 -67.383 -469.684 210 210 210 255
211.134 -67.383 -467.135 210 210 210 255
211.134 -67.383 -464.593 210 210 210 255
211.134 -67.383 -462.058 210 210 210 255
211.134 -67.383 -459.529 210 210 210 255
211.134 -67.383 -457.007 210 210 210 255
211.134 -67.383 -454.492 210 210 210 255
211.134 -67.383 -451.983 210 210 210 255
211.134 -67.383 -449.481 210 210 210 255
211.134 -67.383 -446.985 210 210 210 255
211.134 -67.383 -444.495 210 210 210 255
211.134 -67.383 -442.011 210 210 210 255
211.134 -67.383 -439.534 210 210 210 255
211.134 -67.383 -437.063 210 210 210 255
211.134 -67.383 -434.598 210 210 210 255
211.134 -67.383 -432.139 210 210 210 255
211.134 -67.383 -429.686 210 210 210 255
211.134 -67.383 -427.239 210 210 210 255
211.134 -67.383 -424.798 210 210 210 255
211.134 -67.383 -422.363 210 210 210 255
211.134 -67.383 -419.933 210 210 210 255
211.134 -67.383 -417.509 210 210 210 255
211.134 -67.383 -415.091 210 210 210 255
211.134 -67.383 -412.678 210 210 210 255
211.134 -67.383 -410.271 210 210 210 255
211.134 -67.383 -407.869 210 210 210 255
211.134 -67.383 -405.472 210 210 210 255
211.134 -67.383 -403.081 210 210 210 255
211.134 -67.383 -400.695 210 210 210 255
211.134 -67.383 -398.314 210 210 210 255
211.134 -67.383 -395.939 210 210 210 255
211.134 -67.383 -393.568 210 210 210 255
211.134 -67.383 -391.202 210 210 210 255
211.134 -67.383 -388.842 210 210 210 255
211.134 -67.383 -386.486 210 210 210 255
211.134 -67.383 -384.135 210 210 210 255
211.134 -67.383 -381.788 210 210 210 255
211.134 -67.383 -379.447 210 210 210 255
211.134 -67.383 -377.109 210 210 210 255
211.134 -67.383 -374.777 210 210 210 255
211.134 -67.383 -372.449 210 210 210 255
211.134 -67.383 -370.125 210 210 210 255
211.134 -67.383 -367.805 210 210 210 255
211.134 -67.383 -365.49 210 210 210 255
211.134 -67.383 -363.179 210 210 210 255
211.134 -67.383 -360.872 210 210 210 255
211.134 -67.383 -358.569 210 210 210 255
211.134 -67.383 -356.27 210 210 210 255
211.134 -67.383 -353.974 210 210 210 255
211.134 -67.383 -351.683 210 210 210 255
211.134 -67.383 -349.395 210 210 210 255
211.134 -67.383 -347.111 210 210 210 255
211.134 -67.383 -344.831 210 210 210 255
211.134 -67.383 -342.554 210 210 210 255
211.134 -67.383 -340.28 210 210 210 255
211.134 -67.383 -338.01 210 210 210 255
211.134 -67.383 -335.743 210 210 210 255
211.134 -67.383 -333.479 210 210 210 255
211.134 -67.383 -331.219 210 210 210 255
211.134 -67.383 -328.961 210 210 210 255
211.134 -67.383 -326.707 210 210 210 255
211.134 -67.383 -324.455 210 210 210 255
211.134 -67.383 -322.206 210 210 210 255
211.134 -67.383 -319.96 210 210 210 255
211.134 -67.383 -317.716 210 210 210 255
211.134 -67.383 -315.475 210 210 210 255
211.134 -67.383 -313.237 210 210 210 255
211.134 -67.383 -311.001 210 210 210 255
211.134 -67.383 -308.767 210 210 210 255
211.134 -67.383 -306.536 210 210 210 255
211.134 -67.383 -304.307 210 210 210 255
211.134 -67.383 -302.08 210 210 210 255
211.134 -67.383 -299.854 210 210 210 255
211.134 -67.383 -297.631 210 210 210 255
211.134 -67.383 -295.41 210 210 210 255
211.134 -67.383 -293.19 210 210 210 255
211.134 -67.383 -290.972 210 210 210 255
211.134 -67.383 -288.756 210 210 210 255
211.134 -67.383 -286.541 210 210 210 255
211.134 -67.383 -284.328 210 210 210 255
211.134 -67.383 -282.116 210 210 210 255
211.134 -67.383 -279.905 210 210 210 255
211.134 -67.383 -277.695 210 210 210 255
211.134 -67.383 -275.486 210 210 210 255
211.134 -67.383 -273.279 210 210 210 255
211.134 -67.383 -271.072 210 210 210 255
211.134 -67.383 -268.866 210 210 210 255
211.134 -67.383 -266.661 210 210 210 255
211.134 -67.383 -264.456 210 210 210 255
211.134 -67.383 -262.252 210 210 210 255
211.134 -67.383 -260.049 210 210 210 255
211.134 -67.383 -257.846 210 210 210 255
211.134 -67.383 -255.643 210 210 210 255
211.134 -67.383 -253.44 210 210 210 255
211.134 -67.383 -251.237 210 210 210 255
211.134 -67.383 -249.035 210 210 210 255
211.134 -67.383 -246.832 210 210 210 255
211.134 -67.383 -244.629 210 210 210 255
211.134 -67.383 -242.425 210 210 210 255
211.134 -67.383 -240.222 210 210 210 255
211.134 -67.383 -238.018 210 210 210 255
211.134 -67.383 -235.813 210 210 210 255
211.134 -67.383 -233.608 210 210 210 255
211.134 -67.383 -231.402 210 210 210 255
211.134 -67.383 -229.195 210 210 210 255
211.134 -67.383 -226.987 210 210 210 255
211.134 -67.383 -224.778 210 210 210 255
211.134 -67.383 -222.568 210 210 210 255
211.134 -67.383 -220.357 210 210 210 255
211.134 -67.383 -218.144 210 210 210 255
211.134 -67.383 -215.93 210 210 210 255
211.134 -67.383 -213.714 210 210 210 255
211.134 -67.383 -211.497 210 210 210 255
211.134 -67.383 -209.278 210 210 210 255
211.134 -67.383 -207.057 210 210 210 255
211.134 -67.383 -204.834 210 210 210 255
211.134 -67.383 -202.609 210 210 210 255
211.134 -67.383 -200.383 210 210 210 255
211.134 -67.383 -198.153 210 210 210 255
211.134 -67.383 -195.922 210 210 210 255
211.134 -67.383 -193.688 210 210 210 255
211.134 -67.383 -191.451 210 210 210 255
211.134 -67.383 -189.212 210 210 210 255
211.134 -67.383 -186.97 210 210 210 255
211.134 -67.383 -184.725 210 210 210 255
211.134 -67.383 -182.478 210 210 210 255
211.134 -67.383 -180.227 210 210 210 255
211.134 -67.383 -177.973 210 210 210 255
211.134 -67.383 -175.716 210 210 210 255
211.134 -67.383 -173.455 210 210 210 255
211.134 -67.383 -171.191 210 210 210 255
211.134 -67.383 -168.923 210 210 210 255
211.134 -67.383 -166.652 210 210 210 255
211.134 -67.383 -164.377 210 210 210 255
211.134 -67.383 -162.097 210 210 210 255
211.134 -67.383 -159.814 210 210 210 255
211.134 -67.383 -157.527 210 210 210 255
211.134 -67.383 -155.235 210 210 210 255
211.134 -67.383 -152.939 210 210 210 255
211.134 -67.383 -150.639 210 210 210 255
211.134 -67.383 -148.334 210 210 210 255
211.134 -67.383 -146.024 210 210 210 255
211.134 -67.383 -143.71 210 210 210 255
211.134 -67.383 -141.39 210 210 210 255
211.134 -67.383 -139.066 210 210 210 255
211.134 -67.383 -136.736 210 210 210 255
211.134 -67.383 -134.401 210 210 210 255
211.134 -67.383 -132.061 210 210 210 255
211.134 -67.383 -129.715 210 210 210 255
211.134 -67.383 -127.364 210 210 210 255
211.134 -67.383 -125.007 210 210 210 255
211.134 -67.383 -122.644 210 210 210 255
211.134 -67.383 -120.275 210 210 210 255
211.134 -67.383 -117.9 210 210 210 255
211.134 -67.383 -115.519 210 210 210 255
211.134 -67.383 -113.132 210 210 210 255
211.134 -67.383 -110.738 210 210 210 255
211.134 -67.383 -108.338 210 210 210 255
211.134 -67.383 -105.931 210 210 210 255
211.134 -67.383 -103.517 210 210 210 255
211.134 -67.383 -101.096 210 210 210 255
211.134 -67.383 -98.669 210 210 210 255
211.134 -67.383 -96.2342 210 210 210 255
211.134 -67.383 -93.7922 210 210 210 255
211.134 -67.383 -91.3429 210 210 210 255
211.134 -67.383 -88.8859 210 210 210 255
211.134 -67.383 -86.4215 210 210 210 255
211.134 -67.383 -83.9492 210 210 210 255
211.134 -67.383 -81.4691 210 210 210 255
211.134 -67.383 -78.981 210 210 210 255
211.134 -67.383 -76.4849 210 210 210 255
211.134 -67.383 -73.9805 210 210 210 255
211.134 -67.383 -71.4679 210 210 210 255
211.134 -67.383 -68.9466 210 210 210 255
211.134 -67.383 -66.4168 210 210 210 255
211.134 -67.383 -63.8783 210 210 210 255
211.134 -67.383 -61.3307 210 210 210 255
211.134 -67.383 -58.7744 210 210 210 255
211.134 -67.383 -56.2089 210 210 210 255
211.134 -67.383 -53.6342 210 210 210 255
211.134 -67.383 -51.05 210 210 210 255
211.134 -67.383 -48.4565 210 210 210 255
211.134 -67.383 -45.8531 210 210 210 255
211.134 -67.383 -43.2403 210 210 210 255
211.134 -67.383 -40.6174 210 210 210 255
211.134 -67.383 -37.9845 210 210 210 255
211.134 -67.383 -35.3416 210 210 210 255
211.134 -67.383 -32.6883 210 210 210 255
211.134 -67.383 -30.0247 210 210 210 255
211.134 -67.383 -27.3504 210 210 210 255
211.134 -67.383 -24.6655 210 210 210 255
211.134 -67.383 -21.97 210 210 210 255
211.134 -67.383 -19.2634 210 210 210 255
211.134 -67.383 -16.5457 210 210 210 255
211.134 -67.383 -13.8168 210 210 210 255
211.134 -67.383 -11.0767 210 210 210 255
211.134 -67.383 -8.32507 210 210 210 255
211.134 -67.383 -5.56183 210 210 210 255
211.134 -67.383 -2.7868 210 210 210 255
211.134 -67.383 0 210 210 210 255
211.059 -65.5312 -469.3 210 210 210 255
211.059 -65.5312 -466.761 210 210 210 255
211.059 -65.5312 -464.228 210 210 210 255
211.059 -65.5312 -461.701 210 210 210 255
211.059 -65.5312 -459.182 210 210 210 255
211.059 -65.5312 -456.668 210 210 210 255
211.059 -65.5312 -454.162 210 210 210 255
211.059 -65.5312 -451.661 210 210 210 255
211.059 -65.5312 -449.167 210 210 210 255
211.059 -65.5312 -446.68 210 210 210 255
211.059 -65.5312 -444.198 210 210 210 255
211.059 -65.5312 -441.723 210 210 210 255
211.059 -65.5312 -439.254 210 210 210 255
211.059 -65.5312 -436.791 210 210 210 255
211.059 -65.5312 -434.333 210 210 210 255
211.059 -65.5312 -431.882 210 210 210 255
211.059 -65.5312 -429.437 210 210 210 255
211.059 -65.5312 -426.998 210 210 210 255
211.059 -65.5312 -424.564 210 210 210 255
211.059 -65.5312 -422.136 210 210 210 255
211.059 -65.5312 -419.714 210 210 210 255
211.059 -65.5312 -417.297 210 210 210 255
211.059 -65.5312 -414.886 210 210 210 255
211.059 -65.5312 -412.481 210 210 210 255
211.059 -65.5312 -410.08 210 210 210 255
211.059 -65.5312 -407.686 210 210 210 255
211.059 -65.5312 -405.296 210 210 210 255
211.059 -65.5312 -402.912 210 210 210 255
211.059 -65.5312 -400.533 210 210 210 255
211.059 -65.5312 -398.159 210 210 210 255
211.059 -65.5312 -395.79 210 210 210 255
211.059 -65.5312 -393.426 210 210 210 255
211.059 -65.5312 -391.067 210 210 210 255
211.059 -65.5312 -388.712 210 210 210 255
211.059 -65.5312 -386.363 210 210 210 255
211.059 -65.5312 -384.018 210 210 210 255
211.059 -65.5312 -381.678 210 210 210 255
211.059 -65.5312 -379.342 210 210 210 255
211.059 -65.5312 -377.011 210 210 210 255
211.059 -65.5312 -374.685 210 210 210 255
211.059 -65.5312 -372.363 210 210 210 255
211.059 -65.5312 -370.045 210 210 210 255
211.059 -65.5312 -367.731 210 210 210 255
211.059 -65.5312 -365.422 210 210 210 255
211.059 -65.5312 -363.116 210 210 210 255
211.059 -65.5312 -360.815 210 210 210 255
211.059 -65.5312 -358.517 210 210 210 255
211.059 -65.5312 -356.224 210 210 210 255
211.059 -65.5312 -353.934 210 210 210 255
211.059 -65.5312 -351.648 210 210 210 255
211.059 -65.5312 -349.366 210 210 210 255
211.059 -65.5312 -347.087 210 210 210 255
211.059 -65.5312 -344.812 210 210 210 255
211.059 -65.5312 -342.54 210 210 210 255
211.059 -65.5312 -340.272 210 210 210 255
211.059 -65.5312 -338.007 210 210 210 255
211.059 -65.5312 -335.745 210 210 210 255
211.059 -65.5312 -333.486 210 210 210 255
211.059 -65.5312 -331.23 210 210 210 255
211.059 -65.5312 -328.978 210 210 210 255
211.059 -65.5312 -326.728 210 210 210 255
211.059 -65.5312 -324.481 210 210 210 255
211.059 -65.5312 -322.237 210 210 210 255
211.059 -65.5312 -319.995 210 210 210 255
211.059 -65.5312 -317.756 210 210 210 255
211.059 -65.5312 -315.52 210 210 210 255
211.059 -65.5312 -313.286 210 210 210 255
211.059 -65.5312 -311.054 210 210 210 255
211.059 -65.5312 -308.825 210 210 210 255
211.059 -65.5312 -306.598 210 210 210 255
211.059 -65.5312 -304.373 210 210 210 255
211.059 -65.5312 -302.15 210 210 210 255
211.059 -65.5312 -299.929 210 210 210 255
211.059 -65.5312 -297.71 210 210 210 255
211.059 -65.5312 -295.492 210 210 210 255
211.059 -65.5312 -293.277 210 210 210 255
211.059 -65.5312 -291.063 210 210 210 255
211.059 -65.5312 -288.85 210 210 210 255
211.059 -65.5312 -286.639 210 210 210 255
211.059 -65.5312 -284.43 210 210 210 255
211.059 -65.5312 -282.221 210 210 210 255
211.059 -65.5312 -280.014 210 210 210 255
211.059 -65.5312 -277.808 210 210 210 255
211.059 -65.5312 -275.603 210 210 210 255
211.059 -65.5312 -273.399 210 210 210 255
211.059 -65.5312 -271.195 210 210 210 255
211.059 -65.5312 -268.993 210 210 210 255
211.059 -65.5312 -266.791 210 210 210 255
211.059 -65.5312 -264.59 210 210 210 255
211.059 -65.5312 -262.389 210 210 210 255
211.059 -65.5312 -260.189 210 210 210 255
211.059 -65.5312 -257.988 210 210 210 255
211.059 -65.5312 -255.788 210 210 210 255
211.059 -65.5312 -253.589 210 210 210 255
211.059 -65.5312 -251.389 210 210 210 255
211.059 -65.5312 -249.189 210 210 210 255
211.059 -65.5312 -246.989 210 210 210 255
211.059 -65.5312 -244.789 210 210 210 255
211.059 -65.5312 -242.588 210 210 210 255
211.059 -65.5312 -240.387 210 210 210 255
211.059 -65.5312 -238.186 210 210 210 255
211.059 -65.5312 -235.984 210 210 210 255
211.059 -65.5312 -233.781 210 210 210 255
211.059 -65.5312 -231.577 210 210 210 255
211.059 -65.5312 -229.372 210 210 210 255
211.059 -65.5312 -227.167 210 210 210 255
211.059 -65.5312 -224.96 210 210 210 255
211.059 -65.5312 -222.752 210 210 210 255
211.059 -65.5312 -220.543 210 210 210 255
211.059 -65.5312 -218.332 210 210 210 255
211.059 -65.5312 -216.12 210 210 210 255
211.059 -65.5312 -213.906 210 210 210 255
211.059 -65.5312 -211.691 210 210 210 255
211.059 -65.5312 -209.474 210 210 210 255
211.059 -65.5312 -207.255 210 210 210 255
211.059 -65.5312 -205.034 210 210 210 255
211.059 -65.5312 -202.81 210 210 210 255
211.059 -65.5312 -200.585 210 210 210 255
211.059 -65.5312 -198.357 210 210 210 255
211.059 -65.5312 -196.127 210 210 210 255
211.059 -65.5312 -193.894 210 210 210 255
211.059 -65.5312 -191.659 210 210 210 255
211.059 -65.5312 -189.421 210 210 210 255
211.059 -65.5312 -187.18 210 210 210 255
211.059 -65.5312 -184.936 210 210 210 255
211.059 -65.5312 -182.69 210 210 210 255
211.059 -65.5312 -180.44 210 210 210 255
211.059 -65.5312 -178.186 210 210 210 255
211.059 -65.5312 -175.93 210 210 210 255
211.059 -65.5312 -173.67 210 210 210 255
211.059 -65.5312 -171.406 210 210 210 255
211.059 -65.5312 -169.139 210 210 210 255
211.059 -65.5312 -166.868 210 210 210 255
211.059 -65.5312 -164.593 210 210 210 255
211.059 -65.5312 -162.314 210 210 210 255
211.059 -65.5312 -160.031 210 210 210 255
211.059 -65.5312 -157.744 210 210 210 255
211.059 -65.5312 -155.452 210 210 210 255
211.059 -65.5312 -153.156 210 210 210 255
211.059 -65.5312 -150.855 210 210 210 255
211.059 -65.5312 -148.55 210 210 210 255
211.059 -65.5312 -146.24 210 210 210 255
211.059 -65.5312 -143.925 210 210 210 255
211.059 -65.5312 -141.605 210 210 210 255
211.059 -65.5312 -139.28 210 210 210 255
211.059 -65.5312 -136.95 210 210 210 255
211.059 -65.5312 -134.614 210 210 210 255
211.059 -65.5312 -132.273 210 210 210 255
211.059 -65.5312 -129.926 210 210 210 255
211.059 -65.5312 -127.573 210 210 210 255
211.059 -65.5312 -125.215 210 210 210 255
211.059 -65.5312 -122.851 210 210 210 255
211.059 -65.5312 -120.481 210 210 210 255
211.059 -65.5312 -118.104 210 210 210 255
211.059 -65.5312 -115.722 210 210 210 255
211.059 -65.5312 -113.333 210 210 210 255
211.059 -65.5312 -110.937 210 210 210 255
211.059 -65.5312 -108.535 210 210 210 255
211.059 -65.5312 -106.126 210 210 210 255
211.059 -65.5312 -103.71 210 210 210 255
211.059 -65.5312 -101.287 210 210 210 255
211.059 -65.5312 -98.8572 210 210 210 255
