ply
format ascii 1.0
element vertex 1174
property float x
property float y
property float z
property uchar red
property uchar green
property uchar blue
property uchar alpha
end_header
237.581 110.051 -120.805 210 210 210 255
237.581 110.051 -117.45 210 210 210 255
237.581 110.051 -114.094 210 210 210 255
237.581 110.051 -110.738 210 210 210 255
237.581 110.051 -107.383 210 210 210 255
237.581 110.051 -104.027 210 210 210 255
237.581 110.051 -100.671 210 210 210 255
237.581 110.051 -97.3154 210 210 210 255
237.581 110.051 -93.9597 210 210 210 255
237.581 110.051 -90.6041 210 210 210 255
237.581 110.051 -87.2483 210 210 210 255
237.581 110.051 -83.8926 210 210 210 255
237.581 110.051 -80.5369 210 210 210 255
237.581 110.051 -77.1812 210 210 210 255
237.581 110.051 -73.8255 210 210 210 255
237.581 110.051 -70.4698 210 210 210 255
237.581 110.051 -67.1141 210 210 210 255
237.581 110.051 -63.7584 210 210 210 255
237.581 110.051 -60.4027 210 210 210 255
237.581 110.051 -57.047 210 210 210 255
237.581 110.051 -53.6913 210 210 210 255
237.581 110.051 -50.3356 210 210 210 255
237.581 110.051 -46.9799 210 210 210 255
237.581 110.051 -43.6241 210 210 210 255
237.581 110.051 -40.2684 210 210 210 255
237.581 110.051 -36.9127 210 210 210 255
237.581 110.051 -33.5571 210 210 210 255
237.581 110.051 -30.2014 210 210 210 255
237.581 110.051 -26.8456 210 210 210 255
237.581 110.051 -23.4899 210 210 210 255
237.581 110.051 -20.1342 210 210 210 255
237.581 110.051 -16.7785 210 210 210 255
237.581 110.051 -13.4228 210 210 210 255
237.581 110.051 -10.0671 210 210 210 255
237.581 110.051 -6.71143 210 210 210 255
237.581 110.051 -3.35571 210 210 210 255
237.581 110.051 0 210 210 210 255
238.278 111.656 -500 210 210 210 255
238.278 111.656 -496.644 210 210 210 255
238.278 111.656 -493.289 210 210 210 255
238.278 111.656 -489.933 210 210 210 255
238.278 111.656 -486.577 210 210 210 255
238.278 111.656 -483.221 210 210 210 255
238.278 111.656 -479.866 210 210 210 255
238.278 111.656 -476.51 210 210 210 255
238.278 111.656 -473.154 210 210 210 255
238.278 111.656 -469.799 210 210 210 255
238.278 111.656 -466.443 210 210 210 255
238.278 111.656 -463.087 210 210 210 255
238.278 111.656 -459.732 210 210 210 255
238.278 111.656 -456.376 210 210 210 255
238.278 111.656 -453.02 210 210 210 255
238.278 111.656 -449.664 210 210 210 255
238.278 111.656 -446.309 210 210 210 255
238.278 111.656 -442.953 210 210 210 255
238.278 111.656 -439.597 210 210 210 255
238.278 111.656 -436.242 210 210 210 255
238.278 111.656 -432.886 210 210 210 255
238.278 111.656 -429.53 210 210 210 255
238.278 111.656 -426.174 210 210 210 255
238.278 111.656 -422.819 210 210 210 255
238.278 111.656 -419.463 210 210 210 255
238.278 111.656 -416.107 210 210 210 255
238.278 111.656 -412.752 210 210 210 255
238.278 111.656 -409.396 210 210 210 255
238.278 111.656 -406.04 210 210 210 255
238.278 111.656 -402.685 210 210 210 255
238.278 111.656 -399.329 210 210 210 255
238.278 111.656 -395.973 210 210 210 255
238.278 111.656 -392.617 210 210 210 255
238.278 111.656 -389.262 210 210 210 255
238.278 111.656 -385.906 210 210 210 255
238.278 111.656 -382.55 210 210 210 255
238.278 111.656 -379.195 210 210 210 255
238.278 111.656 -375.839 210 210 210 255
238.278 111.656 -372.483 210 210 210 255
238.278 111.656 -369.128 210 210 210 255
238.278 111.656 -365.772 210 210 210 255
238.278 111.656 -362.416 210 210 210 255
238.278 111.656 -359.06 210 210 210 255
238.278 111.656 -355.705 210 210 210 255
238.278 111.656 -352.349 210 210 210 255
238.278 111.656 -348.993 210 210 210 255
238.278 111.656 -345.638 210 210 210 255
238.278 111.656 -342.282 210 210 210 255
238.278 111.656 -338.926 210 210 210 255
238.278 111.656 -335.57 210 210 210 255
238.278 111.656 -332.215 210 210 210 255
238.278 111.656 -328.859 210 210 210 255
238.278 111.656 -325.503 210 210 210 255
238.278 111.656 -322.148 210 210 210 255
238.278 111.656 -318.792 210 210 210 255
238.278 111.656 -315.436 210 210 210 255
238.278 111.656 -312.081 210 210 210 255
238.278 111.656 -308.725 210 210 210 255
238.278 111.656 -305.369 210 210 210 255
238.278 111.656 -302.013 210 210 210 255
238.278 111.656 -298.658 210 210 210 255
238.278 111.656 -295.302 210 210 210 255
238.278 111.656 -291.946 210 210 210 255
238.278 111.656 -288.591 210 210 210 255
238.278 111.656 -285.235 210 210 210 255
238.278 111.656 -281.879 210 210 210 255
238.278 111.656 -278.523 210 210 210 255
238.278 111.656 -275.168 210 210 210 255
238.278 111.656 -271.812 210 210 210 255
238.278 111.656 -268.456 210 210 210 255
238.278 111.656 -265.101 210 210 210 255
238.278 111.656 -261.745 210 210 210 255
238.278 111.656 -258.389 210 210 210 255
238.278 111.656 -255.034 210 210 210 255
238.278 111.656 -251.678 210 210 210 255
238.278 111.656 -248.322 210 210 210 255
238.278 111.656 -244.966 210 210 210 255
238.278 111.656 -241.611 210 210 210 255
238.278 111.656 -238.255 210 210 210 255
238.278 111.656 -234.899 210 210 210 255
238.278 111.656 -231.544 210 210 210 255
238.278 111.656 -228.188 210 210 210 255
238.278 111.656 -224.832 210 210 210 255
238.278 111.656 -221.476 210 210 210 255
238.278 111.656 -218.121 210 210 210 255
238.278 111.656 -214.765 210 210 210 255
238.278 111.656 -211.409 210 210 210 255
238.278 111.656 -208.054 210 210 210 255
238.278 111.656 -204.698 210 210 210 255
238.278 111.656 -201.342 210 210 210 255
238.278 111.656 -197.987 210 210 210 255
238.278 111.656 -194.631 210 210 210 255
238.278 111.656 -191.275 210 210 210 255
238.278 111.656 -187.919 210 210 210 255
238.278 111.656 -184.564 210 210 210 255
238.278 111.656 -181.208 210 210 210 255
238.278 111.656 -177.852 210 210 210 255
238.278 111.656 -174.497 210 210 210 255
238.278 111.656 -171.141 210 210 210 255
238.278 111.656 -167.785 210 210 210 255
238.278 111.656 -164.43 210 210 210 255
238.278 111.656 -161.074 210 210 210 255
238.278 111.656 -157.718 210 210 210 255
238.278 111.656 -154.362 210 210 210 255
238.278 111.656 -151.007 210 210 210 255
238.278 111.656 -147.651 210 210 210 255
238.278 111.656 -144.295 210 210 210 255
238.278 111.656 -140.94 210 210 210 255
238.278 111.656 -137.584 210 210 210 255
238.278 111.656 -134.228 210 210 210 255
238.278 111.656 -130.872 210 210 210 255
238.278 111.656 -127.517 210 210 210 255
238.278 111.656 -124.161 210 210 210 255
238.278 111.656 -120.805 210 210 210 255
238.278 111.656 -117.45 210 210 210 255
238.278 111.656 -114.094 210 210 210 255
238.278 111.656 -110.738 210 210 210 255
238.278 111.656 -107.383 210 210 210 255
238.278 111.656 -104.027 210 210 210 255
238.278 111.656 -100.671 210 210 210 255
238.278 111.656 -97.3154 210 210 210 255
238.278 111.656 -93.9597 210 210 210 255
238.278 111.656 -90.604 210 210 210 255
238.278 111.656 -87.2484 210 210 210 255
238.278 111.656 -83.8926 210 210 210 255
238.278 111.656 -80.5369 210 210 210 255
238.278 111.656 -77.1812 210 210 210 255
238.278 111.656 -73.8255 210 210 210 255
238.278 111.656 -70.4698 210 210 210 255
238.278 111.656 -67.1141 210 210 210 255
238.278 111.656 -63.7584 210 210 210 255
238.278 111.656 -60.4026 210 210 210 255
238.278 111.656 -57.047 210 210 210 255
238.278 111.656 -53.6913 210 210 210 255
238.278 111.656 -50.3356 210 210 210 255
238.278 111.656 -46.9799 210 210 210 255
238.278 111.656 -43.6241 210 210 210 255
238.278 111.656 -40.2684 210 210 210 255
238.278 111.656 -36.9127 210 210 210 255
238.278 111.656 -33.5571 210 210 210 255
238.278 111.656 -30.2014 210 210 210 255
238.278 111.656 -26.8456 210 210 210 255
238.278 111.656 -23.4899 210 210 210 255
238.278 111.656 -20.1342 210 210 210 255
238.278 111.656 -16.7785 210 210 210 255
238.278 111.656 -13.4229 210 210 210 255
238.278 111.656 -10.0671 210 210 210 255
238.278 111.656 -6.71143 210 210 210 255
238.278 111.656 -3.35571 210 210 210 255
238.278 111.656 0 210 210 210 255
238.975 113.244 -500 210 210 210 255
238.975 113.244 -496.644 210 210 210 255
238.975 113.244 -493.289 210 210 210 255
238.975 113.244 -489.933 210 210 210 255
238.975 113.244 -486.577 210 210 210 255
238.975 113.244 -483.221 210 210 210 255
238.975 113.244 -479.866 210 210 210 255
238.975 113.244 -476.51 210 210 210 255
238.975 113.244 -473.154 210 210 210 255
238.975 113.244 -469.799 210 210 210 255
238.975 113.244 -466.443 210 210 210 255
238.975 113.244 -463.087 210 210 210 255
238.975 113.244 -459.732 210 210 210 255
238.975 113.244 -456.376 210 210 210 255
238.975 113.244 -453.02 210 210 210 255
238.975 113.244 -449.664 210 210 210 255
238.975 113.244 -446.309 210 210 210 255
238.975 113.244 -442.953 210 210 210 255
238.975 113.244 -439.597 210 210 210 255
238.975 113.244 -436.242 210 210 210 255
238.975 113.244 -432.886 210 210 210 255
238.975 113.244 -429.53 210 210 210 255
238.975 113.244 -426.174 210 210 210 255
238.975 113.244 -422.819 210 210 210 255
238.975 113.244 -419.463 210 210 210 255
238.975 113.244 -416.107 210 210 210 255
238.975 113.244 -412.752 210 210 210 255
238.975 113.244 -409.396 210 210 210 255
238.975 113.244 -406.04 210 210 210 255
238.975 113.244 -402.685 210 210 210 255
238.975 113.244 -399.329 210 210 210 255
238.975 113.244 -395.973 210 210 210 255
238.975 113.244 -392.617 210 210 210 255
238.975 113.244 -389.262 210 210 210 255
238.975 113.244 -385.906 210 210 210 255
238.975 113.244 -382.55 210 210 210 255
238.975 113.244 -379.195 210 210 210 255
238.975 113.244 -375.839 210 210 210 255
238.975 113.244 -372.483 210 210 210 255
238.975 113.244 -369.128 210 210 210 255
238.975 113.244 -365.772 210 210 210 255
238.975 113.244 -362.416 210 210 210 255
238.975 113.244 -359.06 210 210 210 255
238.975 113.244 -355.705 210 210 210 255
238.975 113.244 -352.349 210 210 210 255
238.975 113.244 -348.993 210 210 210 255
238.975 113.244 -345.638 210 210 210 255
238.975 113.244 -342.282 210 210 210 255
238.975 113.244 -338.926 210 210 210 255
238.975 113.244 -335.57 210 210 210 255
238.975 113.244 -332.215 210 210 210 255
238.975 113.244 -328.859 210 210 210 255
238.975 113.244 -325.503 210 210 210 255
238.975 113.244 -322.148 210 210 210 255
238.975 113.244 -318.792 210 210 210 255
238.975 113.244 -315.436 210 210 210 255
238.975 113.244 -312.081 210 210 210 255
238.975 113.244 -308.725 210 210 210 255
238.975 113.244 -305.369 210 210 210 255
238.975 113.244 -302.013 210 210 210 255
238.975 113.244 -298.658 210 210 210 255
238.975 113.244 -295.302 210 210 210 255
238.975 113.244 -291.946 210 210 210 255
238.975 113.244 -288.591 210 210 210 255
238.975 113.244 -285.235 210 210 210 255
238.975 113.244 -281.879 210 210 210 255
238.975 113.244 -278.523 210 210 210 255
238.975 113.244 -275.168 210 210 210 255
238.975 113.244 -271.812 210 210 210 255
238.975 113.244 -268.456 210 210 210 255
238.975 113.244 -265.101 210 210 210 255
238.975 113.244 -261.745 210 210 210 255
238.975 113.244 -258.389 210 210 210 255
238.975 113.244 -255.034 210 210 210 255
238.975 113.244 -251.678 210 210 210 255
238.975 113.244 -248.322 210 210 210 255
238.975 113.244 -244.966 210 210 210 255
238.975 113.244 -241.611 210 210 210 255
238.975 113.244 -238.255 210 210 210 255
238.975 113.244 -234.899 210 210 210 255
238.975 113.244 -231.544 210 210 210 255
238.975 113.244 -228.188 210 210 210 255
238.975 113.244 -224.832 210 210 210 255
238.975 113.244 -221.477 210 210 210 255
238.975 113.244 -218.121 210 210 210 255
238.975 113.244 -214.765 210 210 210 255
238.975 113.244 -211.409 210 210 210 255
238.975 113.244 -208.054 210 210 210 255
238.975 113.244 -204.698 210 210 210 255
238.975 113.244 -201.342 210 210 210 255
238.975 113.244 -197.987 210 210 210 255
238.975 113.244 -194.631 210 210 210 255
238.975 113.244 -191.275 210 210 210 255
238.975 113.244 -187.919 210 210 210 255
238.975 113.244 -184.564 210 210 210 255
238.975 113.244 -181.208 210 210 210 255
238.975 113.244 -177.852 210 210 210 255
238.975 113.244 -174.497 210 210 210 255
238.975 113.244 -171.141 210 210 210 255
238.975 113.244 -167.785 210 210 210 255
238.975 113.244 -164.43 210 210 210 255
238.975 113.244 -161.074 210 210 210 255
238.975 113.244 -157.718 210 210 210 255
238.975 113.244 -154.362 210 210 210 255
238.975 113.244 -151.007 210 210 210 255
238.975 113.244 -147.651 210 210 210 255
238.975 113.244 -144.295 210 210 210 255
238.975 113.244 -140.94 210 210 210 255
238.975 113.244 -137.584 210 210 210 255
238.975 113.244 -134.228 210 210 210 255
238.975 113.244 -130.872 210 210 210 255
238.975 113.244 -127.517 210 210 210 255
238.975 113.244 -124.161 210 210 210 255
238.975 113.244 -120.805 210 210 210 255
238.975 113.244 -117.45 210 210 210 255
238.975 113.244 -114.094 210 210 210 255
238.975 113.244 -110.738 210 210 210 255
238.975 113.244 -107.383 210 210 210 255
238.975 113.244 -104.027 210 210 210 255
238.975 113.244 -100.671 210 210 210 255
238.975 113.244 -97.3154 210 210 210 255
238.975 113.244 -93.9597 210 210 210 255
238.975 113.244 -90.6041 210 210 210 255
238.975 113.244 -87.2484 210 210 210 255
238.975 113.244 -83.8926 210 210 210 255
238.975 113.244 -80.5369 210 210 210 255
238.975 113.244 -77.1812 210 210 210 255
238.975 113.244 -73.8255 210 210 210 255
238.975 113.244 -70.4698 210 210 210 255
238.975 113.244 -67.1141 210 210 210 255
238.975 113.244 -63.7584 210 210 210 255
238.975 113.244 -60.4027 210 210 210 255
238.975 113.244 -57.047 210 210 210 255
238.975 113.244 -53.6913 210 210 210 255
238.975 113.244 -50.3356 210 210 210 255
238.975 113.244 -46.9799 210 210 210 255
238.975 113.244 -43.6242 210 210 210 255
238.975 113.244 -40.2684 210 210 210 255
238.975 113.244 -36.9127 210 210 210 255
238.975 113.244 -33.5571 210 210 210 255
238.975 113.244 -30.2014 210 210 210 255
238.975 113.244 -26.8457 210 210 210 255
238.975 113.244 -23.4899 210 210 210 255
238.975 113.244 -20.1343 210 210 210 255
238.975 113.244 -16.7786 210 210 210 255
238.975 113.244 -13.4229 210 210 210 255
238.975 113.244 -10.0671 210 210 210 255
238.975 113.244 -6.71136 210 210 210 255
238.975 113.244 -3.35571 210 210 210 255
238.975 113.244 0 210 210 210 255
239.671 114.814 -500 210 210 210 255
239.671 114.814 -496.644 210 210 210 255
239.671 114.814 -493.289 210 210 210 255
239.671 114.814 -489.933 210 210 210 255
239.671 114.814 -486.577 210 210 210 255
239.671 114.814 -483.221 210 210 210 255
239.671 114.814 -479.866 210 210 210 255
239.671 114.814 -476.51 210 210 210 255
239.671 114.814 -473.154 210 210 210 255
239.671 114.814 -469.799 210 210 210 255
239.671 114.814 -466.443 210 210 210 255
239.671 114.814 -463.087 210 210 210 255
239.671 114.814 -459.732 210 210 210 255
239.671 114.814 -456.376 210 210 210 255
239.671 114.814 -453.02 210 210 210 255
239.671 114.814 -449.664 210 210 210 255
239.671 114.814 -446.309 210 210 210 255
239.671 114.814 -442.953 210 210 210 255
239.671 114.814 -439.597 210 210 210 255
239.671 114.814 -436.242 210 210 210 255
239.671 114.814 -432.886 210 210 210 255
239.671 114.814 -429.53 210 210 210 255
239.671 114.814 -426.174 210 210 210 255
239.671 114.814 -422.819 210 210 210 255
239.671 114.814 -419.463 210 210 210 255
239.671 114.814 -416.107 210 210 210 255
239.671 114.814 -412.752 210 210 210 255
239.671 114.814 -409.396 210 210 210 255
239.671 114.814 -406.04 210 210 210 255
239.671 114.814 -402.685 210 210 210 255
239.671 114.814 -399.329 210 210 210 255
239.671 114.814 -395.973 210 210 210 255
239.671 114.814 -392.617 210 210 210 255
239.671 114.814 -389.262 210 210 210 255
239.671 114.814 -385.906 210 210 210 255
239.671 114.814 -382.55 210 210 210 255
239.671 114.814 -379.195 210 210 210 255
239.671 114.814 -375.839 210 210 210 255
239.671 114.814 -372.483 210 210 210 255
239.671 114.814 -369.128 210 210 210 255
239.671 114.814 -365.772 210 210 210 255
239.671 114.814 -362.416 210 210 210 255
239.671 114.814 -359.06 210 210 210 255
239.671 114.814 -355.705 210 210 210 255
239.671 114.814 -352.349 210 210 210 255
239.671 114.814 -348.993 210 210 210 255
239.671 114.814 -345.638 210 210 210 255
239.671 114.814 -342.282 210 210 210 255
239.671 114.814 -338.926 210 210 210 255
239.671 114.814 -335.57 210 210 210 255
239.671 114.814 -332.215 210 210 210 255
239.671 114.814 -328.859 210 210 210 255
239.671 114.814 -325.503 210 210 210 255
239.671 114.814 -322.148 210 210 210 255
239.671 114.814 -318.792 210 210 210 255
239.671 114.814 -315.436 210 210 210 255
239.671 114.814 -312.081 210 210 210 255
239.671 114.814 -308.725 210 210 210 255
239.671 114.814 -305.369 210 210 210 255
239.671 114.814 -302.013 210 210 210 255
239.671 114.814 -298.658 210 210 210 255
239.671 114.814 -295.302 210 210 210 255
239.671 114.814 -291.946 210 210 210 255
239.671 114.814 -288.591 210 210 210 255
239.671 114.814 -285.235 210 210 210 255
239.671 114.814 -281.879 210 210 210 255
239.671 114.814 -278.523 210 210 210 255
239.671 114.814 -275.168 210 210 210 255
239.671 114.814 -271.812 210 210 210 255
239.671 114.814 -268.456 210 210 210 255
239.671 114.814 -265.101 210 210 210 255
239.671 114.814 -261.745 210 210 210 255
239.671 114.814 -258.389 210 210 210 255
239.671 114.814 -255.034 210 210 210 255
239.671 114.814 -251.678 210 210 210 255
239.671 114.814 -248.322 210 210 210 255
239.671 114.814 -244.966 210 210 210 255
239.671 114.814 -241.611 210 210 210 255
239.671 114.814 -238.255 210 210 210 255
239.671 114.814 -234.899 210 210 210 255
239.671 114.814 -231.544 210 210 210 255
239.671 114.814 -228.188 210 210 210 255
239.671 114.814 -224.832 210 210 210 255
239.671 114.814 -221.476 210 210 210 255
239.671 114.814 -218.121 210 210 210 255
239.671 114.814 -214.765 210 210 210 255
239.671 114.814 -211.409 210 210 210 255
239.671 114.814 -208.054 210 210 210 255
239.671 114.814 -204.698 210 210 210 255
239.671 114.814 -201.342 210 210 210 255
239.671 114.814 -197.987 210 210 210 255
239.671 114.814 -194.631 210 210 210 255
239.671 114.814 -191.275 210 210 210 255
239.671 114.814 -187.919 210 210 210 255
239.671 114.814 -184.564 210 210 210 255
239.671 114.814 -181.208 210 210 210 255
239.671 114.814 -177.852 210 210 210 255
239.671 114.814 -174.497 210 210 210 255
239.671 114.814 -171.141 210 210 210 255
239.671 114.814 -167.785 210 210 210 255
239.671 114.814 -164.43 210 210 210 255
239.671 114.814 -161.074 210 210 210 255
239.671 114.814 -157.718 210 210 210 255
239.671 114.814 -154.362 210 210 210 255
239.671 114.814 -151.007 210 210 210 255
239.671 114.814 -147.651 210 210 210 255
239.671 114.814 -144.295 210 210 210 255
239.671 114.814 -140.94 210 210 210 255
239.671 114.814 -137.584 210 210 210 255
239.671 114.814 -134.228 210 210 210 255
239.671 114.814 -130.872 210 210 210 255
239.671 114.814 -127.517 210 210 210 255
239.671 114.814 -124.161 210 210 210 255
239.671 114.814 -120.805 210 210 210 255
239.671 114.814 -117.45 210 210 210 255
239.671 114.814 -114.094 210 210 210 255
239.671 114.814 -110.738 210 210 210 255
239.671 114.814 -107.383 210 210 210 255
239.671 114.814 -104.027 210 210 210 255
239.671 114.814 -100.671 210 210 210 255
239.671 114.814 -97.3154 210 210 210 255
239.671 114.814 -93.9597 210 210 210 255
239.671 114.814 -90.604 210 210 210 255
239.671 114.814 -87.2484 210 210 210 255
239.671 114.814 -83.8926 210 210 210 255
239.671 114.814 -80.5369 210 210 210 255
239.671 114.814 -77.1812 210 210 210 255
239.671 114.814 -73.8255 210 210 210 255
239.671 114.814 -70.4698 210 210 210 255
239.671 114.814 -67.1141 210 210 210 255
239.671 114.814 -63.7584 210 210 210 255
239.671 114.814 -60.4027 210 210 210 255
239.671 114.814 -57.047 210 210 210 255
239.671 114.814 -53.6913 210 210 210 255
239.671 114.814 -50.3356 210 210 210 255
239.671 114.814 -46.9799 210 210 210 255
239.671 114.814 -43.6241 210 210 210 255
239.671 114.814 -40.2684 210 210 210 255
239.671 114.814 -36.9128 210 210 210 255
239.671 114.814 -33.557 210 210 210 255
239.671 114.814 -30.2014 210 210 210 255
239.671 114.814 -26.8456 210 210 210 255
239.671 114.814 -23.4899 210 210 210 255
239.671 114.814 -20.1342 210 210 210 255
239.671 114.814 -16.7785 210 210 210 255
239.671 114.814 -13.4229 210 210 210 255
239.671 114.814 -10.0671 210 210 210 255
239.671 114.814 -6.71136 210 210 210 255
239.671 114.814 -3.35571 210 210 210 255
239.671 114.814 0 210 210 210 255
240.364 116.366 -500 210 210 210 255
240.364 116.366 -496.644 210 210 210 255
240.364 116.366 -493.289 210 210 210 255
240.364 116.366 -489.933 210 210 210 255
240.364 116.366 -486.577 210 210 210 255
240.364 116.366 -483.221 210 210 210 255
240.364 116.366 -479.866 210 210 210 255
240.364 116.366 -476.51 210 210 210 255
240.364 116.366 -473.154 210 210 210 255
240.364 116.366 -469.799 210 210 210 255
240.364 116.366 -466.443 210 210 210 255
240.364 116.366 -463.087 210 210 210 255
240.364 116.366 -459.732 210 210 210 255
240.364 116.366 -456.376 210 210 210 255
240.364 116.366 -453.02 210 210 210 255
240.364 116.366 -449.664 210 210 210 255
240.364 116.366 -446.309 210 210 210 255
240.364 116.366 -442.953 210 210 210 255
240.364 116.366 -439.597 210 210 210 255
240.364 116.366 -436.242 210 210 210 255
240.364 116.366 -432.886 210 210 210 255
240.364 116.366 -429.53 210 210 210 255
240.364 116.366 -426.174 210 210 210 255
240.364 116.366 -422.819 210 210 210 255
240.364 116.366 -419.463 210 210 210 255
240.364 116.366 -416.107 210 210 210 255
240.364 116.366 -412.752 210 210 210 255
240.364 116.366 -409.396 210 210 210 255
240.364 116.366 -406.04 210 210 210 255
240.364 116.366 -402.685 210 210 210 255
240.364 116.366 -399.329 210 210 210 255
240.364 116.366 -395.973 210 210 210 255
240.364 116.366 -392.617 210 210 210 255
240.364 116.366 -389.262 210 210 210 255
240.364 116.366 -385.906 210 210 210 255
240.364 116.366 -382.55 210 210 210 255
240.364 116.366 -379.195 210 210 210 255
240.364 116.366 -375.839 210 210 210 255
240.364 116.366 -372.483 210 210 210 255
240.364 116.366 -369.128 210 210 210 255
240.364 116.366 -365.772 210 210 210 255
240.364 116.366 -362.416 210 210 210 255
240.364 116.366 -359.06 210 210 210 255
240.364 116.366 -355.705 210 210 210 255
240.364 116.366 -352.349 210 210 210 255
240.364 116.366 -348.993 210 210 210 255
240.364 116.366 -345.638 210 210 210 255
240.364 116.366 -342.282 210 210 210 255
240.364 116.366 -338.926 210 210 210 255
240.364 116.366 -335.57 210 210 210 255
240.364 116.366 -332.215 210 210 210 255
240.364 116.366 -328.859 210 210 210 255
240.364 116.366 -325.503 210 210 210 255
240.364 116.366 -322.148 210 210 210 255
240.364 116.366 -318.792 210 210 210 255
240.364 116.366 -315.436 210 210 210 255
240.364 116.366 -312.081 210 210 210 255
240.364 116.366 -308.725 210 210 210 255
240.364 116.366 -305.369 210 210 210 255
240.364 116.366 -302.013 210 210 210 255
240.364 116.366 -298.658 210 210 210 255
240.364 116.366 -295.302 210 210 210 255
240.364 116.366 -291.946 210 210 210 255
240.364 116.366 -288.591 210 210 210 255
240.364 116.366 -285.235 210 210 210 255
240.364 116.366 -281.879 210 210 210 255
240.364 116.366 -278.523 210 210 210 255
240.364 116.366 -275.168 210 210 210 255
240.364 116.366 -271.812 210 210 210 255
240.364 116.366 -268.456 210 210 210 255
240.364 116.366 -265.101 210 210 210 255
240.364 116.366 -261.745 210 210 210 255
240.364 116.366 -258.389 210 210 210 255
240.364 116.366 -255.034 210 210 210 255
240.364 116.366 -251.678 210 210 210 255
240.364 116.366 -248.322 210 210 210 255
240.364 116.366 -244.966 210 210 210 255
240.364 116.366 -241.611 210 210 210 255
240.364 116.366 -238.255 210 210 210 255
240.364 116.366 -234.899 210 210 210 255
240.364 116.366 -231.544 210 210 210 255
240.364 116.366 -228.188 210 210 210 255
240.364 116.366 -224.832 210 210 210 255
240.364 116.366 -221.477 210 210 210 255
240.364 116.366 -218.121 210 210 210 255
240.364 116.366 -214.765 210 210 210 255
240.364 116.366 -211.409 210 210 210 255
240.364 116.366 -208.054 210 210 210 255
240.364 116.366 -204.698 210 210 210 255
240.364 116.366 -201.342 210 210 210 255
240.364 116.366 -197.987 210 210 210 255
240.364 116.366 -194.631 210 210 210 255
240.364 116.366 -191.275 210 210 210 255
240.364 116.366 -187.919 210 210 210 255
240.364 116.366 -184.564 210 210 210 255
240.364 116.366 -181.208 210 210 210 255
240.364 116.366 -177.852 210 210 210 255
240.364 116.366 -174.497 210 210 210 255
240.364 116.366 -171.141 210 210 210 255
240.364 116.366 -167.785 210 210 210 255
240.364 116.366 -164.43 210 210 210 255
240.364 116.366 -161.074 210 210 210 255
240.364 116.366 -157.718 210 210 210 255
240.364 116.366 -154.362 210 210 210 255
240.364 116.366 -151.007 210 210 210 255
240.364 116.366 -147.651 210 210 210 255
240.364 116.366 -144.295 210 210 210 255
240.364 116.366 -140.94 210 210 210 255
240.364 116.366 -137.584 210 210 210 255
240.364 116.366 -134.228 210 210 210 255
240.364 116.366 -130.872 210 210 210 255
240.364 116.366 -127.517 210 210 210 255
240.364 116.366 -124.161 210 210 210 255
240.364 116.366 -120.805 210 210 210 255
240.364 116.366 -117.45 210 210 210 255
240.364 116.366 -114.094 210 210 210 255
240.364 116.366 -110.738 210 210 210 255
240.364 116.366 -107.383 210 210 210 255
240.364 116.366 -104.027 210 210 210 255
240.364 116.366 -100.671 210 210 210 255
240.364 116.366 -97.3154 210 210 210 255
240.364 116.366 -93.9597 210 210 210 255
240.364 116.366 -90.604 210 210 210 255
240.364 116.366 -87.2483 210 210 210 255
240.364 116.366 -83.8926 210 210 210 255
240.364 116.366 -80.5369 210 210 210 255
240.364 116.366 -77.1812 210 210 210 255
240.364 116.366 -73.8255 210 210 210 255
240.364 116.366 -70.4698 210 210 210 255
240.364 116.366 -67.1141 210 210 210 255
240.364 116.366 -63.7584 210 210 210 255
240.364 116.366 -60.4027 210 210 210 255
240.364 116.366 -57.047 210 210 210 255
240.364 116.366 -53.6913 210 210 210 255
240.364 116.366 -50.3356 210 210 210 255
240.364 116.366 -46.9799 210 210 210 255
240.364 116.366 -43.6241 210 210 210 255
240.364 116.366 -40.2684 210 210 210 255
240.364 116.366 -36.9128 210 210 210 255
240.364 116.366 -33.557 210 210 210 255
240.364 116.366 -30.2014 210 210 210 255
240.364 116.366 -26.8456 210 210 210 255
240.364 116.366 -23.4899 210 210 210 255
240.364 116.366 -20.1342 210 210 210 255
240.364 116.366 -16.7785 210 210 210 255
240.364 116.366 -13.4228 210 210 210 255
240.364 116.366 -10.0671 210 210 210 255
240.364 116.366 -6.71143 210 210 210 255
240.364 116.366 -3.35571 210 210 210 255
240.364 116.366 0 210 210 210 255
241.054 117.899 -500 210 210 210 255
241.054 117.899 -496.644 210 210 210 255
241.054 117.899 -493.289 210 210 210 255
241.054 117.899 -489.933 210 210 210 255
241.054 117.899 -486.577 210 210 210 255
241.054 117.899 -483.221 210 210 210 255
241.054 117.899 -479.866 210 210 210 255
241.054 117.899 -476.51 210 210 210 255
241.054 117.899 -473.154 210 210 210 255
241.054 117.899 -469.799 210 210 210 255
241.054 117.899 -466.443 210 210 210 255
241.054 117.899 -463.087 210 210 210 255
241.054 117.899 -459.732 210 210 210 255
241.054 117.899 -456.376 210 210 210 255
241.054 117.899 -453.02 210 210 210 255
241.054 117.899 -449.664 210 210 210 255
241.054 117.899 -446.309 210 210 210 255
241.054 117.899 -442.953 210 210 210 255
241.054 117.899 -439.597 210 210 210 255
241.054 117.899 -436.242 210 210 210 255
241.054 117.899 -432.886 210 210 210 255
241.054 117.899 -429.53 210 210 210 255
241.054 117.899 -426.175 210 210 210 255
241.054 117.899 -422.819 210 210 210 255
241.054 117.899 -419.463 210 210 210 255
241.054 117.899 -416.107 210 210 210 255
241.054 117.899 -412.752 210 210 210 255
241.054 117.899 -409.396 210 210 210 255
241.054 117.899 -406.04 210 210 210 255
241.054 117.899 -402.685 210 210 210 255
241.054 117.899 -399.329 210 210 210 255
241.054 117.899 -395.973 210 210 210 255
241.054 117.899 -392.617 210 210 210 255
241.054 117.899 -389.262 210 210 210 255
241.054 117.899 -385.906 210 210 210 255
241.054 117.899 -382.55 210 210 210 255
241.054 117.899 -379.195 210 210 210 255
241.054 117.899 -375.839 210 210 210 255
241.054 117.899 -372.483 210 210 210 255
241.054 117.899 -369.128 210 210 210 255
241.054 117.899 -365.772 210 210 210 255
241.054 117.899 -362.416 210 210 210 255
241.054 117.899 -359.06 210 210 210 255
241.054 117.899 -355.705 210 210 210 255
241.054 117.899 -352.349 210 210 210 255
241.054 117.899 -348.993 210 210 210 255
241.054 117.899 -345.638 210 210 210 255
241.054 117.899 -342.282 210 210 210 255
241.054 117.899 -338.926 210 210 210 255
241.054 117.899 -335.57 210 210 210 255
241.054 117.899 -332.215 210 210 210 255
241.054 117.899 -328.859 210 210 210 255
241.054 117.899 -325.503 210 210 210 255
241.054 117.899 -322.148 210 210 210 255
241.054 117.899 -318.792 210 210 210 255
241.054 117.899 -315.436 210 210 210 255
241.054 117.899 -312.081 210 210 210 255
241.054 117.899 -308.725 210 210 210 255
241.054 117.899 -305.369 210 210 210 255
241.054 117.899 -302.013 210 210 210 255
241.054 117.899 -298.658 210 210 210 255
241.054 117.899 -295.302 210 210 210 255
241.054 117.899 -291.946 210 210 210 255
241.054 117.899 -288.591 210 210 210 255
241.054 117.899 -285.235 210 210 210 255
241.054 117.899 -281.879 210 210 210 255
241.054 117.899 -278.523 210 210 210 255
241.054 117.899 -275.168 210 210 210 255
241.054 117.899 -271.812 210 210 210 255
241.054 117.899 -268.456 210 210 210 255
241.054 117.899 -265.101 210 210 210 255
241.054 117.899 -261.745 210 210 210 255
241.054 117.899 -258.389 210 210 210 255
241.054 117.899 -255.034 210 210 210 255
241.054 117.899 -251.678 210 210 210 255
241.054 117.899 -248.322 210 210 210 255
241.054 117.899 -244.966 210 210 210 255
241.054 117.899 -241.611 210 210 210 255
241.054 117.899 -238.255 210 210 210 255
241.054 117.899 -234.899 210 210 210 255
241.054 117.899 -231.544 210 210 210 255
241.054 117.899 -228.188 210 210 210 255
241.054 117.899 -224.832 210 210 210 255
241.054 117.899 -221.477 210 210 210 255
241.054 117.899 -218.121 210 210 210 255
241.054 117.899 -214.765 210 210 210 255
241.054 117.899 -211.409 210 210 210 255
241.054 117.899 -208.054 210 210 210 255
241.054 117.899 -204.698 210 210 210 255
241.054 117.899 -201.342 210 210 210 255
241.054 117.899 -197.987 210 210 210 255
241.054 117.899 -194.631 210 210 210 255
241.054 117.899 -191.275 210 210 210 255
241.054 117.899 -187.919 210 210 210 255
241.054 117.899 -184.564 210 210 210 255
241.054 117.899 -181.208 210 210 210 255
241.054 117.899 -177.852 210 210 210 255
241.054 117.899 -174.497 210 210 210 255
241.054 117.899 -171.141 210 210 210 255
241.054 117.899 -167.785 210 210 210 255
241.054 117.899 -164.43 210 210 210 255
241.054 117.899 -161.074 210 210 210 255
241.054 117.899 -157.718 210 210 210 255
241.054 117.899 -154.362 210 210 210 255
241.054 117.899 -151.007 210 210 210 255
241.054 117.899 -147.651 210 210 210 255
241.054 117.899 -144.295 210 210 210 255
241.054 117.899 -140.94 210 210 210 255
241.054 117.899 -137.584 210 210 210 255
241.054 117.899 -134.228 210 210 210 255
241.054 117.899 -130.872 210 210 210 255
241.054 117.899 -127.517 210 210 210 255
241.054 117.899 -124.161 210 210 210 255
241.054 117.899 -120.805 210 210 210 255
241.054 117.899 -117.45 210 210 210 255
241.054 117.899 -114.094 210 210 210 255
241.054 117.899 -110.738 210 210 210 255
241.054 117.899 -107.383 210 210 210 255
241.054 117.899 -104.027 210 210 210 255
241.054 117.899 -100.671 210 210 210 255
241.054 117.899 -97.3154 210 210 210 255
241.054 117.899 -93.9597 210 210 210 255
241.054 117.899 -90.604 210 210 210 255
241.054 117.899 -87.2484 210 210 210 255
241.054 117.899 -83.8926 210 210 210 255
241.054 117.899 -80.5369 210 210 210 255
241.054 117.899 -77.1812 210 210 210 255
241.054 117.899 -73.8255 210 210 210 255
241.054 117.899 -70.4698 210 210 210 255
241.054 117.899 -67.1141 210 210 210 255
241.054 117.899 -63.7584 210 210 210 255
241.054 117.899 -60.4027 210 210 210 255
241.054 117.899 -57.047 210 210 210 255
241.054 117.899 -53.6913 210 210 210 255
241.054 117.899 -50.3356 210 210 210 255
241.054 117.899 -46.9799 210 210 210 255
241.054 117.899 -43.6241 210 210 210 255
241.054 117.899 -40.2684 210 210 210 255
241.054 117.899 -36.9128 210 210 210 255
241.054 117.899 -33.557 210 210 210 255
241.054 117.899 -30.2014 210 210 210 255
241.054 117.899 -26.8456 210 210 210 255
241.054 117.899 -23.4899 210 210 210 255
241.054 117.899 -20.1342 210 210 210 255
241.054 117.899 -16.7786 210 210 210 255
241.054 117.899 -13.4229 210 210 210 255
241.054 117.899 -10.0671 210 210 210 255
241.054 117.899 -6.71143 210 210 210 255
241.054 117.899 -3.35571 210 210 210 255
241.054 117.899 0 210 210 210 255
241.741 119.413 -500 210 210 210 255
241.741 119.413 -496.644 210 210 210 255
241.741 119.413 -493.289 210 210 210 255
241.741 119.413 -489.933 210 210 210 255
241.741 119.413 -486.577 210 210 210 255
241.741 119.413 -483.221 210 210 210 255
241.741 119.413 -479.866 210 210 210 255
241.741 119.413 -476.51 210 210 210 255
241.741 119.413 -473.154 210 210 210 255
241.741 119.413 -469.799 210 210 210 255
241.741 119.413 -466.443 210 210 210 255
241.741 119.413 -463.087 210 210 210 255
241.741 119.413 -459.732 210 210 210 255
241.741 119.413 -456.376 210 210 210 255
241.741 119.413 -453.02 210 210 210 255
241.741 119.413 -449.664 210 210 210 255
241.741 119.413 -446.309 210 210 210 255
241.741 119.413 -442.953 210 210 210 255
241.741 119.413 -439.597 210 210 210 255
241.741 119.413 -436.242 210 210 210 255
241.741 119.413 -432.886 210 210 210 255
241.741 119.413 -429.53 210 210 210 255
241.741 119.413 -426.174 210 210 210 255
241.741 119.413 -422.819 210 210 210 255
241.741 119.413 -419.463 210 210 210 255
241.741 119.413 -416.107 210 210 210 255
241.741 119.413 -412.752 210 210 210 255
241.741 119.413 -409.396 210 210 210 255
241.741 119.413 -406.04 210 210 210 255
241.741 119.413 -402.685 210 210 210 255
241.741 119.413 -399.329 210 210 210 255
241.741 119.413 -395.973 210 210 210 255
241.741 119.413 -392.617 210 210 210 255
241.741 119.413 -389.262 210 210 210 255
241.741 119.413 -385.906 210 210 210 255
241.741 119.413 -382.55 210 210 210 255
241.741 119.413 -379.195 210 210 210 255
241.741 119.413 -375.839 210 210 210 255
241.741 119.413 -372.483 210 210 210 255
241.741 119.413 -369.128 210 210 210 255
241.741 119.413 -365.772 210 210 210 255
241.741 119.413 -362.416 210 210 210 255
241.741 119.413 -359.06 210 210 210 255
241.741 119.413 -355.705 210 210 210 255
241.741 119.413 -352.349 210 210 210 255
241.741 119.413 -348.993 210 210 210 255
241.741 119.413 -345.638 210 210 210 255
241.741 119.413 -342.282 210 210 210 255
241.741 119.413 -338.926 210 210 210 255
241.741 119.413 -335.57 210 210 210 255
241.741 119.413 -332.215 210 210 210 255
241.741 119.413 -328.859 210 210 210 255
241.741 119.413 -325.503 210 210 210 255
241.741 119.413 -322.148 210 210 210 255
241.741 119.413 -318.792 210 210 210 255
241.741 119.413 -315.436 210 210 210 255
241.741 119.413 -312.081 210 210 210 255
241.741 119.413 -308.725 210 210 210 255
241.741 119.413 -305.369 210 210 210 255
241.741 119.413 -302.013 210 210 210 255
241.741 119.413 -298.658 210 210 210 255
241.741 119.413 -295.302 210 210 210 255
241.741 119.413 -291.946 210 210 210 255
241.741 119.413 -288.591 210 210 210 255
241.741 119.413 -285.235 210 210 210 255
241.741 119.413 -281.879 210 210 210 255
241.741 119.413 -278.523 210 210 210 255
241.741 119.413 -275.168 210 210 210 255
241.741 119.413 -271.812 210 210 210 255
241.741 119.413 -268.456 210 210 210 255
241.741 119.413 -265.101 210 210 210 255
241.741 119.413 -261.745 210 210 210 255
241.741 119.413 -258.389 210 210 210 255
241.741 119.413 -255.034 210 210 210 255
241.741 119.413 -251.678 210 210 210 255
241.741 119.413 -248.322 210 210 210 255
241.741 119.413 -244.966 210 210 210 255
241.741 119.413 -241.611 210 210 210 255
241.741 119.413 -238.255 210 210 210 255
241.741 119.413 -234.899 210 210 210 255
241.741 119.413 -231.544 210 210 210 255
241.741 119.413 -228.188 210 210 210 255
241.741 119.413 -224.832 210 210 210 255
241.741 119.413 -221.477 210 210 210 255
241.741 119.413 -218.121 210 210 210 255
241.741 119.413 -214.765 210 210 210 255
241.741 119.413 -211.409 210 210 210 255
241.741 119.413 -208.054 210 210 210 255
241.741 119.413 -204.698 210 210 210 255
241.741 119.413 -201.342 210 210 210 255
241.741 119.413 -197.987 210 210 210 255
241.741 119.413 -194.631 210 210 210 255
241.741 119.413 -191.275 210 210 210 255
241.741 119.413 -187.919 210 210 210 255
241.741 119.413 -184.564 210 210 210 255
241.741 119.413 -181.208 210 210 210 255
241.741 119.413 -177.852 210 210 210 255
241.741 119.413 -174.497 210 210 210 255
241.741 119.413 -171.141 210 210 210 255
241.741 119.413 -167.785 210 210 210 255
241.741 119.413 -164.43 210 210 210 255
241.741 119.413 -161.074 210 210 210 255
241.741 119.413 -157.718 210 210 210 255
241.741 119.413 -154.362 210 210 210 255
241.741 119.413 -151.007 210 210 210 255
241.741 119.413 -147.651 210 210 210 255
241.741 119.413 -144.295 210 210 210 255
241.741 119.413 -140.94 210 210 210 255
241.741 119.413 -137.584 210 210 210 255
241.741 119.413 -134.228 210 210 210 255
241.741 119.413 -130.872 210 210 210 255
241.741 119.413 -127.517 210 210 210 255
241.741 119.413 -124.161 210 210 210 255
241.741 119.413 -120.805 210 210 210 255
241.741 119.413 -117.45 210 210 210 255
241.741 119.413 -114.094 210 210 210 255
241.741 119.413 -110.738 210 210 210 255
241.741 119.413 -107.383 210 210 210 255
241.741 119.413 -104.027 210 210 210 255
241.741 119.413 -100.671 210 210 210 255
241.741 119.413 -97.3154 210 210 210 255
241.741 119.413 -93.9597 210 210 210 255
241.741 119.413 -90.6041 210 210 210 255
241.741 119.413 -87.2484 210 210 210 255
241.741 119.413 -83.8926 210 210 210 255
241.741 119.413 -80.5369 210 210 210 255
241.741 119.413 -77.1812 210 210 210 255
241.741 119.413 -73.8255 210 210 210 255
241.741 119.413 -70.4698 210 210 210 255
241.741 119.413 -67.1141 210 210 210 255
241.741 119.413 -63.7584 210 210 210 255
241.741 119.413 -60.4027 210 210 210 255
241.741 119.413 -57.047 210 210 210 255
241.741 119.413 -53.6913 210 210 210 255
241.741 119.413 -50.3356 210 210 210 255
241.741 119.413 -46.9799 210 210 210 255
241.741 119.413 -43.6242 210 210 210 255
241.741 119.413 -40.2684 210 210 210 255
241.741 119.413 -36.9127 210 210 210 255
241.741 119.413 -33.5571 210 210 210 255
241.741 119.413 -30.2014 210 210 210 255
241.741 119.413 -26.8456 210 210 210 255
241.741 119.413 -23.4899 210 210 210 255
241.741 119.413 -20.1342 210 210 210 255
241.741 119.413 -16.7786 210 210 210 255
241.741 119.413 -13.4229 210 210 210 255
241.741 119.413 -10.0671 210 210 210 255
241.741 119.413 -6.71143 210 210 210 255
241.741 119.413 -3.35571 210 210 210 255
241.741 119.413 0 210 210 210 255
242.423 120.907 -500 210 210 210 255
242.423 120.907 -496.644 210 210 210 255
242.423 120.907 -493.289 210 210 210 255
242.423 120.907 -489.933 210 210 210 255
242.423 120.907 -486.577 210 210 210 255
242.423 120.907 -483.221 210 210 210 255
242.423 120.907 -479.866 210 210 210 255
242.423 120.907 -476.51 210 210 210 255
242.423 120.907 -473.154 210 210 210 255
242.423 120.907 -469.799 210 210 210 255
242.423 120.907 -466.443 210 210 210 255
242.423 120.907 -463.087 210 210 210 255
242.423 120.907 -459.732 210 210 210 255
242.423 120.907 -456.376 210 210 210 255
242.423 120.907 -453.02 210 210 210 255
242.423 120.907 -449.664 210 210 210 255
242.423 120.907 -446.309 210 210 210 255
242.423 120.907 -442.953 210 210 210 255
242.423 120.907 -439.597 210 210 210 255
242.423 120.907 -436.242 210 210 210 255
242.423 120.907 -432.886 210 210 210 255
242.423 120.907 -429.53 210 210 210 255
242.423 120.907 -426.174 210 210 210 255
242.423 120.907 -422.819 210 210 210 255
242.423 120.907 -419.463 210 210 210 255
242.423 120.907 -416.107 210 210 210 255
242.423 120.907 -412.752 210 210 210 255
242.423 120.907 -409.396 210 210 210 255
242.423 120.907 -406.04 210 210 210 255
242.423 120.907 -402.685 210 210 210 255
242.423 120.907 -399.329 210 210 210 255
242.423 120.907 -395.973 210 210 210 255
242.423 120.907 -392.617 210 210 210 255
242.423 120.907 -389.262 210 210 210 255
242.423 120.907 -385.906 210 210 210 255
242.423 120.907 -382.55 210 210 210 255
242.423 120.907 -379.195 210 210 210 255
242.423 120.907 -375.839 210 210 210 255
242.423 120.907 -372.483 210 210 210 255
242.423 120.907 -369.128 210 210 210 255
242.423 120.907 -365.772 210 210 210 255
242.423 120.907 -362.416 210 210 210 255
242.423 120.907 -359.06 210 210 210 255
242.423 120.907 -355.705 210 210 210 255
242.423 120.907 -352.349 210 210 210 255
242.423 120.907 -348.993 210 210 210 255
242.423 120.907 -345.638 210 210 210 255
242.423 120.907 -342.282 210 210 210 255
242.423 120.907 -338.926 210 210 210 255
242.423 120.907 -335.57 210 210 210 255
242.423 120.907 -332.215 210 210 210 255
242.423 120.907 -328.859 210 210 210 255
242.423 120.907 -325.503 210 210 210 255
242.423 120.907 -322.148 210 210 210 255
242.423 120.907 -318.792 210 210 210 255
242.423 120.907 -315.436 210 210 210 255
242.423 120.907 -312.081 210 210 210 255
242.423 120.907 -308.725 210 210 210 255
242.423 120.907 -305.369 210 210 210 255
242.423 120.907 -302.013 210 210 210 255
242.423 120.907 -298.658 210 210 210 255
242.423 120.907 -295.302 210 210 210 255
242.423 120.907 -291.946 210 210 210 255
242.423 120.907 -288.591 210 210 210 255
242.423 120.907 -285.235 210 210 210 255
242.423 120.907 -281.879 210 210 210 255
242.423 120.907 -278.523 210 210 210 255
242.423 120.907 -275.168 210 210 210 255
242.423 120.907 -271.812 210 210 210 255
242.423 120.907 -268.456 210 210 210 255
242.423 120.907 -265.101 210 210 210 255
242.423 120.907 -261.745 210 210 210 255
242.423 120.907 -258.389 210 210 210 255
242.423 120.907 -255.034 210 210 210 255
242.423 120.907 -251.678 210 210 210 255
242.423 120.907 -248.322 210 210 210 255
242.423 120.907 -244.966 210 210 210 255
242.423 120.907 -241.611 210 210 210 255
242.423 120.907 -238.255 210 210 210 255
242.423 120.907 -234.899 210 210 210 255
242.423 120.907 -231.544 210 210 210 255
242.423 120.907 -228.188 210 210 210 255
242.423 120.907 -224.832 210 210 210 255
242.423 120.907 -221.477 210 210 210 255
242.423 120.907 -218.121 210 210 210 255
242.423 120.907 -214.765 210 210 210 255
242.423 120.907 -211.409 210 210 210 255
242.423 120.907 -208.054 210 210 210 255
242.423 120.907 -204.698 210 210 210 255
242.423 120.907 -201.342 210 210 210 255
242.423 120.907 -197.987 210 210 210 255
242.423 120.907 -194.631 210 210 210 255
242.423 120.907 -191.275 210 210 210 255
242.423 120.907 -187.919 210 210 210 255
242.423 120.907 -184.564 210 210 210 255
242.423 120.907 -181.208 210 210 210 255
242.423 120.907 -177.852 210 210 210 255
242.423 120.907 -174.497 210 210 210 255
242.423 120.907 -171.141 210 210 210 255
242.423 120.907 -167.785 210 210 210 255
242.423 120.907 -164.43 210 210 210 255
242.423 120.907 -161.074 210 210 210 255
242.423 120.907 -157.718 210 210 210 255
242.423 120.907 -154.362 210 210 210 255
242.423 120.907 -151.007 210 210 210 255
242.423 120.907 -147.651 210 210 210 255
242.423 120.907 -144.295 210 210 210 255
242.423 120.907 -140.94 210 210 210 255
242.423 120.907 -137.584 210 210 210 255
242.423 120.907 -134.228 210 210 210 255
242.423 120.907 -130.872 210 210 210 255
242.423 120.907 -127.517 210 210 210 255
242.423 120.907 -124.161 210 210 210 255
242.423 120.907 -120.805 210 210 210 255
242.423 120.907 -117.45 210 210 210 255
242.423 120.907 -114.094 210 210 210 255
242.423 120.907 -110.738 210 210 210 255
242.423 120.907 -107.383 210 210 210 255
242.423 120.907 -104.027 210 210 210 255
242.423 120.907 -100.671 210 210 210 255
242.423 120.907 -97.3154 210 210 210 255
242.423 120.907 -93.9597 210 210 210 255
242.423 120.907 -90.604 210 210 210 255
242.423 120.907 -87.2484 210 210 210 255
242.423 120.907 -83.8926 210 210 210 255
242.423 120.907 -80.5369 210 210 210 255
242.423 120.907 -77.1812 210 210 210 255
242.423 120.907 -73.8255 210 210 210 255
242.423 120.907 -70.4698 210 210 210 255
242.423 120.907 -67.1141 210 210 210 255
242.423 120.907 -63.7584 210 210 210 255
242.423 120.907 -60.4027 210 210 210 255
242.423 120.907 -57.047 210 210 210 255
242.423 120.907 -53.6913 210 210 210 255
242.423 120.907 -50.3356 210 210 210 255
242.423 120.907 -46.9799 210 210 210 255
242.423 120.907 -43.6241 210 210 210 255
242.423 120.907 -40.2685 210 210 210 255
242.423 120.907 -36.9127 210 210 210 255
242.423 120.907 -33.5571 210 210 210 255
242.423 120.907 -30.2014 210 210 210 255
242.423 120.907 -26.8456 210 210 210 255
242.423 120.907 -23.4899 210 210 210 255
242.423 120.907 -20.1342 210 210 210 255
242.423 120.907 -16.7785 210 210 210 255
242.423 120.907 -13.4229 210 210 210 255
242.423 120.907 -10.0671 210 210 210 255
242.423 120.907 -6.71143 210 210 210 255
242.423 120.907 -3.35571 210 210 210 255
242.423 120.907 0 210 210 210 255
243.1 122.379 -500 210 210 210 255
243.1 122.379 -496.644 210 210 210 255
243.1 122.379 -493.289 210 210 210 255
243.1 122.379 -489.933 210 210 210 255
243.1 122.379 -486.577 210 210 210 255
243.1 122.379 -483.221 210 210 210 255
243.1 122.379 -479.866 210 210 210 255
243.1 122.379 -476.51 210 210 210 255
243.1 122.379 -473.154 210 210 210 255
243.1 122.379 -469.799 210 210 210 255
243.1 122.379 -466.443 210 210 210 255
243.1 122.379 -463.087 210 210 210 255
243.1 122.379 -459.732 210 210 210 255
243.1 122.379 -456.376 210 210 210 255
243.1 122.379 -453.02 210 210 210 255
243.1 122.379 -449.664 210 210 210 255
243.1 122.379 -446.309 210 210 210 255
243.1 122.379 -442.953 210 210 210 255
243.1 122.379 -439.597 210 210 210 255
243.1 122.379 -436.242 210 210 210 255
243.1 122.379 -432.886 210 210 210 255
243.1 122.379 -429.53 210 210 210 255
243.1 122.379 -426.174 210 210 210 255
243.1 122.379 -422.819 210 210 210 255
243.1 122.379 -419.463 210 210 210 255
243.1 122.379 -416.107 210 210 210 255
243.1 122.379 -412.752 210 210 210 255
243.1 122.379 -409.396 210 210 210 255
243.1 122.379 -406.04 210 210 210 255
243.1 122.379 -402.685 210 210 210 255
243.1 122.379 -399.329 210 210 210 255
243.1 122.379 -395.973 210 210 210 255
243.1 122.379 -392.617 210 210 210 255
243.1 122.379 -389.262 210 210 210 255
243.1 122.379 -385.906 210 210 210 255
243.1 122.379 -382.55 210 210 210 255
243.1 122.379 -379.195 210 210 210 255
243.1 122.379 -375.839 210 210 210 255
243.1 122.379 -372.483 210 210 210 255
243.1 122.379 -369.128 210 210 210 255
243.1 122.379 -365.772 210 210 210 255
243.1 122.379 -362.416 210 210 210 255
243.1 122.379 -359.06 210 210 210 255
243.1 122.379 -355.705 210 210 210 255
243.1 122.379 -352.349 210 210 210 255
243.1 122.379 -348.993 210 210 210 255
243.1 122.379 -345.638 210 210 210 255
243.1 122.379 -342.282 210 210 210 255
243.1 122.379 -338.926 210 210 210 255
243.1 122.379 -335.57 210 210 210 255
243.1 122.379 -332.215 210 210 210 255
243.1 122.379 -328.859 210 210 210 255
243.1 122.379 -325.503 210 210 210 255
243.1 122.379 -322.148 210 210 210 255
243.1 122.379 -318.792 210 210 210 255
243.1 122.379 -315.436 210 210 210 255
243.1 122.379 -312.081 210 210 210 255
243.1 122.379 -308.725 210 210 210 255
243.1 122.379 -305.369 210 210 210 255
243.1 122.379 -302.013 210 210 210 255
243.1 122.379 -298.658 210 210 210 255
243.1 122.379 -295.302 210 210 210 255
243.1 122.379 -291.946 210 210 210 255
243.1 122.379 -288.591 210 210 210 255
243.1 122.379 -285.235 210 210 210 255
243.1 122.379 -281.879 210 210 210 255
243.1 122.379 -278.523 210 210 210 255
243.1 122.379 -275.168 210 210 210 255
243.1 122.379 -271.812 210 210 210 255
243.1 122.379 -268.456 210 210 210 255
243.1 122.379 -265.101 210 210 210 255
243.1 122.379 -261.745 210 210 210 255
243.1 122.379 -258.389 210 210 210 255
243.1 122.379 -255.034 210 210 210 255
243.1 122.379 -251.678 210 210 210 255
243.1 122.379 -248.322 210 210 210 255
243.1 122.379 -244.966 210 210 210 255
243.1 122.379 -241.611 210 210 210 255
243.1 122.379 -238.255 210 210 210 255
243.1 122.379 -234.899 210 210 210 255
243.1 122.379 -231.544 210 210 210 255
243.1 122.379 -228.188 210 210 210 255
243.1 122.379 -224.832 210 210 210 255
243.1 122.379 -221.477 210 210 210 255
243.1 122.379 -218.121 210 210 210 255
243.1 122.379 -214.765 210 210 210 255
243.1 122.379 -211.409 210 210 210 255
