ply
format ascii 1.0
element vertex 1149
property float x
property float y
property float z
property uchar red
property uchar green
property uchar blue
property uchar alpha
end_header
393.711 -313.772 -281.879 210 210 210 255
393.711 -313.772 -278.523 210 210 210 255
393.711 -313.772 -275.168 210 210 210 255
393.711 -313.772 -271.812 210 210 210 255
393.711 -313.772 -268.456 210 210 210 255
393.711 -313.772 -265.101 210 210 210 255
393.711 -313.772 -261.745 210 210 210 255
393.711 -313.772 -258.389 210 210 210 255
393.711 -313.772 -255.033 210 210 210 255
393.711 -313.772 -251.678 210 210 210 255
393.711 -313.772 -248.322 210 210 210 255
393.711 -313.772 -244.966 210 210 210 255
393.711 -313.772 -241.611 210 210 210 255
393.711 -313.772 -238.255 210 210 210 255
393.711 -313.772 -234.899 210 210 210 255
393.711 -313.772 -231.544 210 210 210 255
393.711 -313.772 -228.188 210 210 210 255
393.711 -313.772 -224.832 210 210 210 255
393.711 -313.772 -221.477 210 210 210 255
393.711 -313.772 -218.121 210 210 210 255
393.711 -313.772 -214.765 210 210 210 255
393.711 -313.772 -211.409 210 210 210 255
393.711 -313.772 -208.054 210 210 210 255
393.711 -313.772 -204.698 210 210 210 255
393.711 -313.772 -201.342 210 210 210 255
393.711 -313.772 -197.987 210 210 210 255
393.711 -313.772 -194.631 210 210 210 255
393.711 -313.772 -191.275 210 210 210 255
393.711 -313.772 -187.919 210 210 210 255
393.711 -313.772 -184.564 210 210 210 255
393.711 -313.772 -181.208 210 210 210 255
393.711 -313.772 -177.852 210 210 210 255
393.711 -313.772 -174.497 210 210 210 255
393.711 -313.772 -171.141 210 210 210 255
393.711 -313.772 -167.785 210 210 210 255
393.711 -313.772 -164.43 210 210 210 255
393.711 -313.772 -161.074 210 210 210 255
393.711 -313.772 -157.718 210 210 210 255
393.711 -313.772 -154.362 210 210 210 255
393.711 -313.772 -151.007 210 210 210 255
393.711 -313.772 -147.651 210 210 210 255
393.711 -313.772 -144.295 210 210 210 255
393.711 -313.772 -140.94 210 210 210 255
393.711 -313.772 -137.584 210 210 210 255
393.711 -313.772 -134.228 210 210 210 255
393.711 -313.772 -130.872 210 210 210 255
393.711 -313.772 -127.517 210 210 210 255
393.711 -313.772 -124.161 210 210 210 255
393.711 -313.772 -120.805 210 210 210 255
393.711 -313.772 -117.45 210 210 210 255
393.711 -313.772 -114.094 210 210 210 255
393.711 -313.772 -110.738 210 210 210 255
393.711 -313.772 -107.383 210 210 210 255
393.711 -313.772 -104.027 210 210 210 255
393.711 -313.772 -100.671 210 210 210 255
393.711 -313.772 -97.3156 210 210 210 255
393.711 -313.772 -93.9598 210 210 210 255
393.711 -313.772 -90.6041 210 210 210 255
393.711 -313.772 -87.2484 210 210 210 255
393.711 -313.772 -83.8926 210 210 210 255
393.711 -313.772 -80.537 210 210 210 255
393.711 -313.772 -77.1812 210 210 210 255
393.711 -313.772 -73.8256 210 210 210 255
393.711 -313.772 -70.4698 210 210 210 255
393.711 -313.772 -67.1142 210 210 210 255
393.711 -313.772 -63.7584 210 210 210 255
393.711 -313.772 -60.4027 210 210 210 255
393.711 -313.772 -57.0471 210 210 210 255
393.711 -313.772 -53.6913 210 210 210 255
393.711 -313.772 -50.3355 210 210 210 255
393.711 -313.772 -46.9799 210 210 210 255
393.711 -313.772 -43.6241 210 210 210 255
393.711 -313.772 -40.2684 210 210 210 255
393.711 -313.772 -36.9129 210 210 210 255
393.711 -313.772 -33.557 210 210 210 255
393.711 -313.772 -30.2014 210 210 210 255
393.711 -313.772 -26.8458 210 210 210 255
393.711 -313.772 -23.4899 210 210 210 255
393.711 -313.772 -20.1343 210 210 210 255
393.711 -313.772 -16.7786 210 210 210 255
393.711 -313.772 -13.4229 210 210 210 255
393.711 -313.772 -10.067 210 210 210 255
393.711 -313.772 -6.71149 210 210 210 255
393.711 -313.772 -3.35577 210 210 210 255
393.711 -313.772 0 210 210 210 255
396.838 -306.543 -500 210 210 210 255
396.838 -306.543 -496.644 210 210 210 255
396.838 -306.543 -493.289 210 210 210 255
396.838 -306.543 -489.933 210 210 210 255
396.838 -306.543 -486.577 210 210 210 255
396.838 -306.543 -483.221 210 210 210 255
396.838 -306.543 -479.866 210 210 210 255
396.838 -306.543 -476.51 210 210 210 255
396.838 -306.543 -473.154 210 210 210 255
396.838 -306.543 -469.799 210 210 210 255
396.838 -306.543 -466.443 210 210 210 255
396.838 -306.543 -463.087 210 210 210 255
396.838 -306.543 -459.732 210 210 210 255
396.838 -306.543 -456.376 210 210 210 255
396.838 -306.543 -453.02 210 210 210 255
396.838 -306.543 -449.664 210 210 210 255
396.838 -306.543 -446.309 210 210 210 255
396.838 -306.543 -442.953 210 210 210 255
396.838 -306.543 -439.597 210 210 210 255
396.838 -306.543 -436.242 210 210 210 255
396.838 -306.543 -432.886 210 210 210 255
396.838 -306.543 -429.53 210 210 210 255
396.838 -306.543 -426.175 210 210 210 255
396.838 -306.543 -422.819 210 210 210 255
396.838 -306.543 -419.463 210 210 210 255
396.838 -306.543 -416.107 210 210 210 255
396.838 -306.543 -412.752 210 210 210 255
396.838 -306.543 -409.396 210 210 210 255
396.838 -306.543 -406.04 210 210 210 255
396.838 -306.543 -402.685 210 210 210 255
396.838 -306.543 -399.329 210 210 210 255
396.838 -306.543 -395.973 210 210 210 255
396.838 -306.543 -392.617 210 210 210 255
396.838 -306.543 -389.262 210 210 210 255
396.838 -306.543 -385.906 210 210 210 255
396.838 -306.543 -382.55 210 210 210 255
396.838 -306.543 -379.195 210 210 210 255
396.838 -306.543 -375.839 210 210 210 255
396.838 -306.543 -372.483 210 210 210 255
396.838 -306.543 -369.128 210 210 210 255
396.838 -306.543 -365.772 210 210 210 255
396.838 -306.543 -362.416 210 210 210 255
396.838 -306.543 -359.06 210 210 210 255
396.838 -306.543 -355.705 210 210 210 255
396.838 -306.543 -352.349 210 210 210 255
396.838 -306.543 -348.993 210 210 210 255
396.838 -306.543 -345.638 210 210 210 255
396.838 -306.543 -342.282 210 210 210 255
396.838 -306.543 -338.926 210 210 210 255
396.838 -306.543 -335.57 210 210 210 255
396.838 -306.543 -332.215 210 210 210 255
396.838 -306.543 -328.859 210 210 210 255
396.838 -306.543 -325.503 210 210 210 255
396.838 -306.543 -322.148 210 210 210 255
396.838 -306.543 -318.792 210 210 210 255
396.838 -306.543 -315.436 210 210 210 255
396.838 -306.543 -312.081 210 210 210 255
396.838 -306.543 -308.725 210 210 210 255
396.838 -306.543 -305.369 210 210 210 255
396.838 -306.543 -302.013 210 210 210 255
396.838 -306.543 -298.658 210 210 210 255
396.838 -306.543 -295.302 210 210 210 255
396.838 -306.543 -291.946 210 210 210 255
396.838 -306.543 -288.591 210 210 210 255
396.838 -306.543 -285.235 210 210 210 255
396.838 -306.543 -281.879 210 210 210 255
396.838 -306.543 -278.524 210 210 210 255
396.838 -306.543 -275.168 210 210 210 255
396.838 -306.543 -271.812 210 210 210 255
396.838 -306.543 -268.456 210 210 210 255
396.838 -306.543 -265.101 210 210 210 255
396.838 -306.543 -261.745 210 210 210 255
396.838 -306.543 -258.389 210 210 210 255
396.838 -306.543 -255.034 210 210 210 255
396.838 -306.543 -251.678 210 210 210 255
396.838 -306.543 -248.322 210 210 210 255
396.838 -306.543 -244.966 210 210 210 255
396.838 -306.543 -241.611 210 210 210 255
396.838 -306.543 -238.255 210 210 210 255
396.838 -306.543 -234.899 210 210 210 255
396.838 -306.543 -231.544 210 210 210 255
396.838 -306.543 -228.188 210 210 210 255
396.838 -306.543 -224.832 210 210 210 255
396.838 -306.543 -221.477 210 210 210 255
396.838 -306.543 -218.121 210 210 210 255
396.838 -306.543 -214.765 210 210 210 255
396.838 -306.543 -211.409 210 210 210 255
396.838 -306.543 -208.054 210 210 210 255
396.838 -306.543 -204.698 210 210 210 255
396.838 -306.543 -201.342 210 210 210 255
396.838 -306.543 -197.987 210 210 210 255
396.838 -306.543 -194.631 210 210 210 255
396.838 -306.543 -191.275 210 210 210 255
396.838 -306.543 -187.919 210 210 210 255
396.838 -306.543 -184.564 210 210 210 255
396.838 -306.543 -181.208 210 210 210 255
396.838 -306.543 -177.852 210 210 210 255
396.838 -306.543 -174.497 210 210 210 255
396.838 -306.543 -171.141 210 210 210 255
396.838 -306.543 -167.785 210 210 210 255
396.838 -306.543 -164.43 210 210 210 255
396.838 -306.543 -161.074 210 210 210 255
396.838 -306.543 -157.718 210 210 210 255
396.838 -306.543 -154.363 210 210 210 255
396.838 -306.543 -151.007 210 210 210 255
396.838 -306.543 -147.651 210 210 210 255
396.838 -306.543 -144.295 210 210 210 255
396.838 -306.543 -140.94 210 210 210 255
396.838 -306.543 -137.584 210 210 210 255
396.838 -306.543 -134.228 210 210 210 255
396.838 -306.543 -130.872 210 210 210 255
396.838 -306.543 -127.517 210 210 210 255
396.838 -306.543 -124.161 210 210 210 255
396.838 -306.543 -120.805 210 210 210 255
396.838 -306.543 -117.45 210 210 210 255
396.838 -306.543 -114.094 210 210 210 255
396.838 -306.543 -110.738 210 210 210 255
396.838 -306.543 -107.382 210 210 210 255
396.838 -306.543 -104.027 210 210 210 255
396.838 -306.543 -100.671 210 210 210 255
396.838 -306.543 -97.3155 210 210 210 255
396.838 -306.543 -93.9596 210 210 210 255
396.838 -306.543 -90.6039 210 210 210 255
396.838 -306.543 -87.2484 210 210 210 255
396.838 -306.543 -83.8926 210 210 210 255
396.838 -306.543 -80.5368 210 210 210 255
396.838 -306.543 -77.1812 210 210 210 255
396.838 -306.543 -73.8256 210 210 210 255
396.838 -306.543 -70.4699 210 210 210 255
396.838 -306.543 -67.1141 210 210 210 255
396.838 -306.543 -63.7584 210 210 210 255
396.838 -306.543 -60.4027 210 210 210 255
396.838 -306.543 -57.0469 210 210 210 255
396.838 -306.543 -53.6912 210 210 210 255
396.838 -306.543 -50.3356 210 210 210 255
396.838 -306.543 -46.9799 210 210 210 255
396.838 -306.543 -43.6241 210 210 210 255
396.838 -306.543 -40.2684 210 210 210 255
396.838 -306.543 -36.9128 210 210 210 255
396.838 -306.543 -33.557 210 210 210 255
396.838 -306.543 -30.2014 210 210 210 255
396.838 -306.543 -26.8456 210 210 210 255
396.838 -306.543 -23.4899 210 210 210 255
396.838 -306.543 -20.1343 210 210 210 255
396.838 -306.543 -16.7786 210 210 210 255
396.838 -306.543 -13.4228 210 210 210 255
396.838 -306.543 -10.0671 210 210 210 255
396.838 -306.543 -6.71149 210 210 210 255
396.838 -306.543 -3.35565 210 210 210 255
396.838 -306.543 -6.10352e-05 210 210 210 255
399.898 -299.283 -500 210 210 210 255
399.898 -299.283 -496.644 210 210 210 255
399.898 -299.283 -493.289 210 210 210 255
399.898 -299.283 -489.933 210 210 210 255
399.898 -299.283 -486.577 210 210 210 255
399.898 -299.283 -483.221 210 210 210 255
399.898 -299.283 -479.866 210 210 210 255
399.898 -299.283 -476.51 210 210 210 255
399.898 -299.283 -473.154 210 210 210 255
399.898 -299.283 -469.799 210 210 210 255
399.898 -299.283 -466.443 210 210 210 255
399.898 -299.283 -463.087 210 210 210 255
399.898 -299.283 -459.732 210 210 210 255
399.898 -299.283 -456.376 210 210 210 255
399.898 -299.283 -453.02 210 210 210 255
399.898 -299.283 -449.664 210 210 210 255
399.898 -299.283 -446.309 210 210 210 255
399.898 -299.283 -442.953 210 210 210 255
399.898 -299.283 -439.597 210 210 210 255
399.898 -299.283 -436.242 210 210 210 255
399.898 -299.283 -432.886 210 210 210 255
399.898 -299.283 -429.53 210 210 210 255
399.898 -299.283 -426.175 210 210 210 255
399.898 -299.283 -422.819 210 210 210 255
399.898 -299.283 -419.463 210 210 210 255
399.898 -299.283 -416.107 210 210 210 255
399.898 -299.283 -412.752 210 210 210 255
399.898 -299.283 -409.396 210 210 210 255
399.898 -299.283 -406.04 210 210 210 255
399.898 -299.283 -402.685 210 210 210 255
399.898 -299.283 -399.329 210 210 210 255
399.898 -299.283 -395.973 210 210 210 255
399.898 -299.283 -392.617 210 210 210 255
399.898 -299.283 -389.262 210 210 210 255
399.898 -299.283 -385.906 210 210 210 255
399.898 -299.283 -382.55 210 210 210 255
399.898 -299.283 -379.195 210 210 210 255
399.898 -299.283 -375.839 210 210 210 255
399.898 -299.283 -372.483 210 210 210 255
399.898 -299.283 -369.128 210 210 210 255
399.898 -299.283 -365.772 210 210 210 255
399.898 -299.283 -362.416 210 210 210 255
399.898 -299.283 -359.06 210 210 210 255
399.898 -299.283 -355.705 210 210 210 255
399.898 -299.283 -352.349 210 210 210 255
399.898 -299.283 -348.993 210 210 210 255
399.898 -299.283 -345.638 210 210 210 255
399.898 -299.283 -342.282 210 210 210 255
399.898 -299.283 -338.926 210 210 210 255
399.898 -299.283 -335.57 210 210 210 255
399.898 -299.283 -332.215 210 210 210 255
399.898 -299.283 -328.859 210 210 210 255
399.898 -299.283 -325.503 210 210 210 255
399.898 -299.283 -322.148 210 210 210 255
399.898 -299.283 -318.792 210 210 210 255
399.898 -299.283 -315.436 210 210 210 255
399.898 -299.283 -312.081 210 210 210 255
399.898 -299.283 -308.725 210 210 210 255
399.898 -299.283 -305.369 210 210 210 255
399.898 -299.283 -302.013 210 210 210 255
399.898 -299.283 -298.658 210 210 210 255
399.898 -299.283 -295.302 210 210 210 255
399.898 -299.283 -291.946 210 210 210 255
399.898 -299.283 -288.591 210 210 210 255
399.898 -299.283 -285.235 210 210 210 255
399.898 -299.283 -281.879 210 210 210 255
399.898 -299.283 -278.524 210 210 210 255
399.898 -299.283 -275.168 210 210 210 255
399.898 -299.283 -271.812 210 210 210 255
399.898 -299.283 -268.456 210 210 210 255
399.898 -299.283 -265.101 210 210 210 255
399.898 -299.283 -261.745 210 210 210 255
399.898 -299.283 -258.389 210 210 210 255
399.898 -299.283 -255.034 210 210 210 255
399.898 -299.283 -251.678 210 210 210 255
399.898 -299.283 -248.322 210 210 210 255
399.898 -299.283 -244.966 210 210 210 255
399.898 -299.283 -241.611 210 210 210 255
399.898 -299.283 -238.255 210 210 210 255
399.898 -299.283 -234.899 210 210 210 255
399.898 -299.283 -231.544 210 210 210 255
399.898 -299.283 -228.188 210 210 210 255
399.898 -299.283 -224.832 210 210 210 255
399.898 -299.283 -221.477 210 210 210 255
399.898 -299.283 -218.121 210 210 210 255
399.898 -299.283 -214.765 210 210 210 255
399.898 -299.283 -211.409 210 210 210 255
399.898 -299.283 -208.054 210 210 210 255
399.898 -299.283 -204.698 210 210 210 255
399.898 -299.283 -201.342 210 210 210 255
399.898 -299.283 -197.987 210 210 210 255
399.898 -299.283 -194.631 210 210 210 255
399.898 -299.283 -191.275 210 210 210 255
399.898 -299.283 -187.919 210 210 210 255
399.898 -299.283 -184.564 210 210 210 255
399.898 -299.283 -181.208 210 210 210 255
399.898 -299.283 -177.852 210 210 210 255
399.898 -299.283 -174.497 210 210 210 255
399.898 -299.283 -171.141 210 210 210 255
399.898 -299.283 -167.785 210 210 210 255
399.898 -299.283 -164.43 210 210 210 255
399.898 -299.283 -161.074 210 210 210 255
399.898 -299.283 -157.718 210 210 210 255
399.898 -299.283 -154.362 210 210 210 255
399.898 -299.283 -151.007 210 210 210 255
399.898 -299.283 -147.651 210 210 210 255
399.898 -299.283 -144.295 210 210 210 255
399.898 -299.283 -140.94 210 210 210 255
399.898 -299.283 -137.584 210 210 210 255
399.898 -299.283 -134.228 210 210 210 255
399.898 -299.283 -130.872 210 210 210 255
399.898 -299.283 -127.517 210 210 210 255
399.898 -299.283 -124.161 210 210 210 255
399.898 -299.283 -120.805 210 210 210 255
399.898 -299.283 -117.45 210 210 210 255
399.898 -299.283 -114.094 210 210 210 255
399.898 -299.283 -110.738 210 210 210 255
399.898 -299.283 -107.383 210 210 210 255
399.898 -299.283 -104.027 210 210 210 255
399.898 -299.283 -100.671 210 210 210 255
399.898 -299.283 -97.3155 210 210 210 255
399.898 -299.283 -93.9598 210 210 210 255
399.898 -299.283 -90.6039 210 210 210 255
399.898 -299.283 -87.2484 210 210 210 255
399.898 -299.283 -83.8925 210 210 210 255
399.898 -299.283 -80.5369 210 210 210 255
399.898 -299.283 -77.1812 210 210 210 255
399.898 -299.283 -73.8256 210 210 210 255
399.898 -299.283 -70.4698 210 210 210 255
399.898 -299.283 -67.1141 210 210 210 255
399.898 -299.283 -63.7584 210 210 210 255
399.898 -299.283 -60.4027 210 210 210 255
399.898 -299.283 -57.047 210 210 210 255
399.898 -299.283 -53.6912 210 210 210 255
399.898 -299.283 -50.3354 210 210 210 255
399.898 -299.283 -46.9798 210 210 210 255
399.898 -299.283 -43.6241 210 210 210 255
399.898 -299.283 -40.2684 210 210 210 255
399.898 -299.283 -36.9128 210 210 210 255
399.898 -299.283 -33.557 210 210 210 255
399.898 -299.283 -30.2014 210 210 210 255
399.898 -299.283 -26.8457 210 210 210 255
399.898 -299.283 -23.4899 210 210 210 255
399.898 -299.283 -20.1342 210 210 210 255
399.898 -299.283 -16.7786 210 210 210 255
399.898 -299.283 -13.4229 210 210 210 255
399.898 -299.283 -10.0671 210 210 210 255
399.898 -299.283 -6.71136 210 210 210 255
399.898 -299.283 -3.35565 210 210 210 255
399.898 -299.283 0 210 210 210 255
402.89 -291.996 -500 210 210 210 255
402.89 -291.996 -496.644 210 210 210 255
402.89 -291.996 -493.289 210 210 210 255
402.89 -291.996 -489.933 210 210 210 255
402.89 -291.996 -486.577 210 210 210 255
402.89 -291.996 -483.221 210 210 210 255
402.89 -291.996 -479.866 210 210 210 255
402.89 -291.996 -476.51 210 210 210 255
402.89 -291.996 -473.154 210 210 210 255
402.89 -291.996 -469.799 210 210 210 255
402.89 -291.996 -466.443 210 210 210 255
402.89 -291.996 -463.087 210 210 210 255
402.89 -291.996 -459.732 210 210 210 255
402.89 -291.996 -456.376 210 210 210 255
402.89 -291.996 -453.02 210 210 210 255
402.89 -291.996 -449.664 210 210 210 255
402.89 -291.996 -446.309 210 210 210 255
402.89 -291.996 -442.953 210 210 210 255
402.89 -291.996 -439.597 210 210 210 255
402.89 -291.996 -436.242 210 210 210 255
402.89 -291.996 -432.886 210 210 210 255
402.89 -291.996 -429.53 210 210 210 255
402.89 -291.996 -426.174 210 210 210 255
402.89 -291.996 -422.819 210 210 210 255
402.89 -291.996 -419.463 210 210 210 255
402.89 -291.996 -416.107 210 210 210 255
402.89 -291.996 -412.752 210 210 210 255
402.89 -291.996 -409.396 210 210 210 255
402.89 -291.996 -406.04 210 210 210 255
402.89 -291.996 -402.685 210 210 210 255
402.89 -291.996 -399.329 210 210 210 255
402.89 -291.996 -395.973 210 210 210 255
402.89 -291.996 -392.618 210 210 210 255
402.89 -291.996 -389.262 210 210 210 255
402.89 -291.996 -385.906 210 210 210 255
402.89 -291.996 -382.55 210 210 210 255
402.89 -291.996 -379.195 210 210 210 255
402.89 -291.996 -375.839 210 210 210 255
402.89 -291.996 -372.483 210 210 210 255
402.89 -291.996 -369.128 210 210 210 255
402.89 -291.996 -365.772 210 210 210 255
402.89 -291.996 -362.416 210 210 210 255
402.89 -291.996 -359.06 210 210 210 255
402.89 -291.996 -355.705 210 210 210 255
402.89 -291.996 -352.349 210 210 210 255
402.89 -291.996 -348.993 210 210 210 255
402.89 -291.996 -345.638 210 210 210 255
402.89 -291.996 -342.282 210 210 210 255
402.89 -291.996 -338.926 210 210 210 255
402.89 -291.996 -335.57 210 210 210 255
402.89 -291.996 -332.215 210 210 210 255
402.89 -291.996 -328.859 210 210 210 255
402.89 -291.996 -325.503 210 210 210 255
402.89 -291.996 -322.148 210 210 210 255
402.89 -291.996 -318.792 210 210 210 255
402.89 -291.996 -315.436 210 210 210 255
402.89 -291.996 -312.081 210 210 210 255
402.89 -291.996 -308.725 210 210 210 255
402.89 -291.996 -305.369 210 210 210 255
402.89 -291.996 -302.013 210 210 210 255
402.89 -291.996 -298.658 210 210 210 255
402.89 -291.996 -295.302 210 210 210 255
402.89 -291.996 -291.946 210 210 210 255
402.89 -291.996 -288.591 210 210 210 255
402.89 -291.996 -285.235 210 210 210 255
402.89 -291.996 -281.879 210 210 210 255
402.89 -291.996 -278.524 210 210 210 255
402.89 -291.996 -275.168 210 210 210 255
402.89 -291.996 -271.812 210 210 210 255
402.89 -291.996 -268.456 210 210 210 255
402.89 -291.996 -265.101 210 210 210 255
402.89 -291.996 -261.745 210 210 210 255
402.89 -291.996 -258.389 210 210 210 255
402.89 -291.996 -255.034 210 210 210 255
402.89 -291.996 -251.678 210 210 210 255
402.89 -291.996 -248.322 210 210 210 255
402.89 -291.996 -244.966 210 210 210 255
402.89 -291.996 -241.611 210 210 210 255
402.89 -291.996 -238.255 210 210 210 255
402.89 -291.996 -234.899 210 210 210 255
402.89 -291.996 -231.544 210 210 210 255
402.89 -291.996 -228.188 210 210 210 255
402.89 -291.996 -224.832 210 210 210 255
402.89 -291.996 -221.477 210 210 210 255
402.89 -291.996 -218.121 210 210 210 255
402.89 -291.996 -214.765 210 210 210 255
402.89 -291.996 -211.409 210 210 210 255
402.89 -291.996 -208.054 210 210 210 255
402.89 -291.996 -204.698 210 210 210 255
402.89 -291.996 -201.342 210 210 210 255
402.89 -291.996 -197.987 210 210 210 255
402.89 -291.996 -194.631 210 210 210 255
402.89 -291.996 -191.275 210 210 210 255
402.89 -291.996 -187.919 210 210 210 255
402.89 -291.996 -184.564 210 210 210 255
402.89 -291.996 -181.208 210 210 210 255
402.89 -291.996 -177.852 210 210 210 255
402.89 -291.996 -174.497 210 210 210 255
402.89 -291.996 -171.141 210 210 210 255
402.89 -291.996 -167.785 210 210 210 255
402.89 -291.996 -164.43 210 210 210 255
402.89 -291.996 -161.074 210 210 210 255
402.89 -291.996 -157.718 210 210 210 255
402.89 -291.996 -154.362 210 210 210 255
402.89 -291.996 -151.007 210 210 210 255
402.89 -291.996 -147.651 210 210 210 255
402.89 -291.996 -144.295 210 210 210 255
402.89 -291.996 -140.94 210 210 210 255
402.89 -291.996 -137.584 210 210 210 255
402.89 -291.996 -134.228 210 210 210 255
402.89 -291.996 -130.872 210 210 210 255
402.89 -291.996 -127.517 210 210 210 255
402.89 -291.996 -124.161 210 210 210 255
402.89 -291.996 -120.805 210 210 210 255
402.89 -291.996 -117.45 210 210 210 255
402.89 -291.996 -114.094 210 210 210 255
402.89 -291.996 -110.738 210 210 210 255
402.89 -291.996 -107.383 210 210 210 255
402.89 -291.996 -104.027 210 210 210 255
402.89 -291.996 -100.671 210 210 210 255
402.89 -291.996 -97.3153 210 210 210 255
402.89 -291.996 -93.9598 210 210 210 255
402.89 -291.996 -90.6041 210 210 210 255
402.89 -291.996 -87.2483 210 210 210 255
402.89 -291.996 -83.8927 210 210 210 255
402.89 -291.996 -80.5369 210 210 210 255
402.89 -291.996 -77.1813 210 210 210 255
402.89 -291.996 -73.8256 210 210 210 255
402.89 -291.996 -70.4698 210 210 210 255
402.89 -291.996 -67.114 210 210 210 255
402.89 -291.996 -63.7585 210 210 210 255
402.89 -291.996 -60.4026 210 210 210 255
402.89 -291.996 -57.0469 210 210 210 255
402.89 -291.996 -53.6912 210 210 210 255
402.89 -291.996 -50.3356 210 210 210 255
402.89 -291.996 -46.9799 210 210 210 255
402.89 -291.996 -43.6241 210 210 210 255
402.89 -291.996 -40.2685 210 210 210 255
402.89 -291.996 -36.9127 210 210 210 255
402.89 -291.996 -33.5571 210 210 210 255
402.89 -291.996 -30.2014 210 210 210 255
402.89 -291.996 -26.8457 210 210 210 255
402.89 -291.996 -23.4898 210 210 210 255
402.89 -291.996 -20.1342 210 210 210 255
402.89 -291.996 -16.7786 210 210 210 255
402.89 -291.996 -13.4228 210 210 210 255
402.89 -291.996 -10.0671 210 210 210 255
402.89 -291.996 -6.7113 210 210 210 255
402.89 -291.996 -3.35565 210 210 210 255
402.89 -291.996 0 210 210 210 255
405.812 -284.681 -500 210 210 210 255
405.812 -284.681 -496.644 210 210 210 255
405.812 -284.681 -493.289 210 210 210 255
405.812 -284.681 -489.933 210 210 210 255
405.812 -284.681 -486.577 210 210 210 255
405.812 -284.681 -483.221 210 210 210 255
405.812 -284.681 -479.866 210 210 210 255
405.812 -284.681 -476.51 210 210 210 255
405.812 -284.681 -473.154 210 210 210 255
405.812 -284.681 -469.799 210 210 210 255
405.812 -284.681 -466.443 210 210 210 255
405.812 -284.681 -463.087 210 210 210 255
405.812 -284.681 -459.732 210 210 210 255
405.812 -284.681 -456.376 210 210 210 255
405.812 -284.681 -453.02 210 210 210 255
405.812 -284.681 -449.664 210 210 210 255
405.812 -284.681 -446.309 210 210 210 255
405.812 -284.681 -442.953 210 210 210 255
405.812 -284.681 -439.597 210 210 210 255
405.812 -284.681 -436.242 210 210 210 255
405.812 -284.681 -432.886 210 210 210 255
405.812 -284.681 -429.53 210 210 210 255
405.812 -284.681 -426.175 210 210 210 255
405.812 -284.681 -422.819 210 210 210 255
405.812 -284.681 -419.463 210 210 210 255
405.812 -284.681 -416.107 210 210 210 255
405.812 -284.681 -412.752 210 210 210 255
405.812 -284.681 -409.396 210 210 210 255
405.812 -284.681 -406.04 210 210 210 255
405.812 -284.681 -402.685 210 210 210 255
405.812 -284.681 -399.329 210 210 210 255
405.812 -284.681 -395.973 210 210 210 255
405.812 -284.681 -392.617 210 210 210 255
405.812 -284.681 -389.262 210 210 210 255
405.812 -284.681 -385.906 210 210 210 255
405.812 -284.681 -382.55 210 210 210 255
405.812 -284.681 -379.195 210 210 210 255
405.812 -284.681 -375.839 210 210 210 255
405.812 -284.681 -372.483 210 210 210 255
405.812 -284.681 -369.128 210 210 210 255
405.812 -284.681 -365.772 210 210 210 255
405.812 -284.681 -362.416 210 210 210 255
405.812 -284.681 -359.06 210 210 210 255
405.812 -284.681 -355.705 210 210 210 255
405.812 -284.681 -352.349 210 210 210 255
405.812 -284.681 -348.993 210 210 210 255
405.812 -284.681 -345.638 210 210 210 255
405.812 -284.681 -342.282 210 210 210 255
405.812 -284.681 -338.926 210 210 210 255
405.812 -284.681 -335.57 210 210 210 255
405.812 -284.681 -332.215 210 210 210 255
405.812 -284.681 -328.859 210 210 210 255
405.812 -284.681 -325.503 210 210 210 255
405.812 -284.681 -322.148 210 210 210 255
405.812 -284.681 -318.792 210 210 210 255
405.812 -284.681 -315.436 210 210 210 255
405.812 -284.681 -312.081 210 210 210 255
405.812 -284.681 -308.725 210 210 210 255
405.812 -284.681 -305.369 210 210 210 255
405.812 -284.681 -302.013 210 210 210 255
405.812 -284.681 -298.658 210 210 210 255
405.812 -284.681 -295.302 210 210 210 255
405.812 -284.681 -291.946 210 210 210 255
405.812 -284.681 -288.591 210 210 210 255
405.812 -284.681 -285.235 210 210 210 255
405.812 -284.681 -281.879 210 210 210 255
405.812 -284.681 -278.523 210 210 210 255
405.812 -284.681 -275.168 210 210 210 255
405.812 -284.681 -271.812 210 210 210 255
405.812 -284.681 -268.456 210 210 210 255
405.812 -284.681 -265.101 210 210 210 255
405.812 -284.681 -261.745 210 210 210 255
405.812 -284.681 -258.389 210 210 210 255
405.812 -284.681 -255.034 210 210 210 255
405.812 -284.681 -251.678 210 210 210 255
405.812 -284.681 -248.322 210 210 210 255
405.812 -284.681 -244.966 210 210 210 255
405.812 -284.681 -241.611 210 210 210 255
405.812 -284.681 -238.255 210 210 210 255
405.812 -284.681 -234.899 210 210 210 255
405.812 -284.681 -231.544 210 210 210 255
405.812 -284.681 -228.188 210 210 210 255
405.812 -284.681 -224.832 210 210 210 255
405.812 -284.681 -221.477 210 210 210 255
405.812 -284.681 -218.121 210 210 210 255
405.812 -284.681 -214.765 210 210 210 255
405.812 -284.681 -211.409 210 210 210 255
405.812 -284.681 -208.054 210 210 210 255
405.812 -284.681 -204.698 210 210 210 255
405.812 -284.681 -201.342 210 210 210 255
405.812 -284.681 -197.987 210 210 210 255
405.812 -284.681 -194.631 210 210 210 255
405.812 -284.681 -191.275 210 210 210 255
405.812 -284.681 -187.919 210 210 210 255
405.812 -284.681 -184.564 210 210 210 255
405.812 -284.681 -181.208 210 210 210 255
405.812 -284.681 -177.852 210 210 210 255
405.812 -284.681 -174.497 210 210 210 255
405.812 -284.681 -171.141 210 210 210 255
405.812 -284.681 -167.785 210 210 210 255
405.812 -284.681 -164.43 210 210 210 255
405.812 -284.681 -161.074 210 210 210 255
405.812 -284.681 -157.718 210 210 210 255
405.812 -284.681 -154.362 210 210 210 255
405.812 -284.681 -151.007 210 210 210 255
405.812 -284.681 -147.651 210 210 210 255
405.812 -284.681 -144.295 210 210 210 255
405.812 -284.681 -140.94 210 210 210 255
405.812 -284.681 -137.584 210 210 210 255
405.812 -284.681 -134.228 210 210 210 255
405.812 -284.681 -130.872 210 210 210 255
405.812 -284.681 -127.517 210 210 210 255
405.812 -284.681 -124.161 210 210 210 255
405.812 -284.681 -120.805 210 210 210 255
405.812 -284.681 -117.45 210 210 210 255
405.812 -284.681 -114.094 210 210 210 255
405.812 -284.681 -110.738 210 210 210 255
405.812 -284.681 -107.383 210 210 210 255
405.812 -284.681 -104.027 210 210 210 255
405.812 -284.681 -100.671 210 210 210 255
405.812 -284.681 -97.3155 210 210 210 255
405.812 -284.681 -93.9596 210 210 210 255
405.812 -284.681 -90.6038 210 210 210 255
405.812 -284.681 -87.2483 210 210 210 255
405.812 -284.681 -83.8926 210 210 210 255
405.812 -284.681 -80.5369 210 210 210 255
405.812 -284.681 -77.1812 210 210 210 255
405.812 -284.681 -73.8256 210 210 210 255
405.812 -284.681 -70.4698 210 210 210 255
405.812 -284.681 -67.1141 210 210 210 255
405.812 -284.681 -63.7584 210 210 210 255
405.812 -284.681 -60.4026 210 210 210 255
405.812 -284.681 -57.0469 210 210 210 255
405.812 -284.681 -53.6913 210 210 210 255
405.812 -284.681 -50.3356 210 210 210 255
405.812 -284.681 -46.9799 210 210 210 255
405.812 -284.681 -43.6241 210 210 210 255
405.812 -284.681 -40.2684 210 210 210 255
405.812 -284.681 -36.9128 210 210 210 255
405.812 -284.681 -33.557 210 210 210 255
405.812 -284.681 -30.2013 210 210 210 255
405.812 -284.681 -26.8456 210 210 210 255
405.812 -284.681 -23.4899 210 210 210 255
405.812 -284.681 -20.1343 210 210 210 255
405.812 -284.681 -16.7786 210 210 210 255
405.812 -284.681 -13.4229 210 210 210 255
405.812 -284.681 -10.067 210 210 210 255
405.812 -284.681 -6.71149 210 210 210 255
405.812 -284.681 -3.35571 210 210 210 255
405.812 -284.681 6.10352e-05 210 210 210 255
408.664 -277.341 -500 210 210 210 255
408.664 -277.341 -496.644 210 210 210 255
408.664 -277.341 -493.289 210 210 210 255
408.664 -277.341 -489.933 210 210 210 255
408.664 -277.341 -486.577 210 210 210 255
408.664 -277.341 -483.221 210 210 210 255
408.664 -277.341 -479.866 210 210 210 255
408.664 -277.341 -476.51 210 210 210 255
408.664 -277.341 -473.154 210 210 210 255
408.664 -277.341 -469.799 210 210 210 255
408.664 -277.341 -466.443 210 210 210 255
408.664 -277.341 -463.087 210 210 210 255
408.664 -277.341 -459.732 210 210 210 255
408.664 -277.341 -456.376 210 210 210 255
408.664 -277.341 -453.02 210 210 210 255
408.664 -277.341 -449.664 210 210 210 255
408.664 -277.341 -446.309 210 210 210 255
408.664 -277.341 -442.953 210 210 210 255
408.664 -277.341 -439.597 210 210 210 255
408.664 -277.341 -436.242 210 210 210 255
408.664 -277.341 -432.886 210 210 210 255
408.664 -277.341 -429.53 210 210 210 255
408.664 -277.341 -426.174 210 210 210 255
408.664 -277.341 -422.819 210 210 210 255
408.664 -277.341 -419.463 210 210 210 255
408.664 -277.341 -416.107 210 210 210 255
408.664 -277.341 -412.752 210 210 210 255
408.664 -277.341 -409.396 210 210 210 255
408.664 -277.341 -406.04 210 210 210 255
408.664 -277.341 -402.685 210 210 210 255
408.664 -277.341 -399.329 210 210 210 255
408.664 -277.341 -395.973 210 210 210 255
408.664 -277.341 -392.617 210 210 210 255
408.664 -277.341 -389.262 210 210 210 255
408.664 -277.341 -385.906 210 210 210 255
408.664 -277.341 -382.55 210 210 210 255
408.664 -277.341 -379.195 210 210 210 255
408.664 -277.341 -375.839 210 210 210 255
408.664 -277.341 -372.483 210 210 210 255
408.664 -277.341 -369.128 210 210 210 255
408.664 -277.341 -365.772 210 210 210 255
408.664 -277.341 -362.416 210 210 210 255
408.664 -277.341 -359.06 210 210 210 255
408.664 -277.341 -355.705 210 210 210 255
408.664 -277.341 -352.349 210 210 210 255
408.664 -277.341 -348.993 210 210 210 255
408.664 -277.341 -345.638 210 210 210 255
408.664 -277.341 -342.282 210 210 210 255
408.664 -277.341 -338.926 210 210 210 255
408.664 -277.341 -335.57 210 210 210 255
408.664 -277.341 -332.215 210 210 210 255
408.664 -277.341 -328.859 210 210 210 255
408.664 -277.341 -325.503 210 210 210 255
408.664 -277.341 -322.148 210 210 210 255
408.664 -277.341 -318.792 210 210 210 255
408.664 -277.341 -315.436 210 210 210 255
408.664 -277.341 -312.081 210 210 210 255
408.664 -277.341 -308.725 210 210 210 255
408.664 -277.341 -305.369 210 210 210 255
408.664 -277.341 -302.013 210 210 210 255
408.664 -277.341 -298.658 210 210 210 255
408.664 -277.341 -295.302 210 210 210 255
408.664 -277.341 -291.946 210 210 210 255
408.664 -277.341 -288.591 210 210 210 255
408.664 -277.341 -285.235 210 210 210 255
408.664 -277.341 -281.879 210 210 210 255
408.664 -277.341 -278.524 210 210 210 255
408.664 -277.341 -275.168 210 210 210 255
408.664 -277.341 -271.812 210 210 210 255
408.664 -277.341 -268.456 210 210 210 255
408.664 -277.341 -265.101 210 210 210 255
408.664 -277.341 -261.745 210 210 210 255
408.664 -277.341 -258.389 210 210 210 255
408.664 -277.341 -255.034 210 210 210 255
408.664 -277.341 -251.678 210 210 210 255
408.664 -277.341 -248.322 210 210 210 255
408.664 -277.341 -244.966 210 210 210 255
408.664 -277.341 -241.611 210 210 210 255
408.664 -277.341 -238.255 210 210 210 255
408.664 -277.341 -234.899 210 210 210 255
408.664 -277.341 -231.544 210 210 210 255
408.664 -277.341 -228.188 210 210 210 255
408.664 -277.341 -224.832 210 210 210 255
408.664 -277.341 -221.477 210 210 210 255
408.664 -277.341 -218.121 210 210 210 255
408.664 -277.341 -214.765 210 210 210 255
408.664 -277.341 -211.409 210 210 210 255
408.664 -277.341 -208.054 210 210 210 255
408.664 -277.341 -204.698 210 210 210 255
408.664 -277.341 -201.342 210 210 210 255
408.664 -277.341 -197.987 210 210 210 255
408.664 -277.341 -194.631 210 210 210 255
408.664 -277.341 -191.275 210 210 210 255
408.664 -277.341 -187.919 210 210 210 255
408.664 -277.341 -184.564 210 210 210 255
408.664 -277.341 -181.208 210 210 210 255
408.664 -277.341 -177.852 210 210 210 255
408.664 -277.341 -174.497 210 210 210 255
408.664 -277.341 -171.141 210 210 210 255
408.664 -277.341 -167.785 210 210 210 255
408.664 -277.341 -164.43 210 210 210 255
408.664 -277.341 -161.074 210 210 210 255
408.664 -277.341 -157.718 210 210 210 255
408.664 -277.341 -154.362 210 210 210 255
408.664 -277.341 -151.007 210 210 210 255
408.664 -277.341 -147.651 210 210 210 255
408.664 -277.341 -144.295 210 210 210 255
408.664 -277.341 -140.94 210 210 210 255
408.664 -277.341 -137.584 210 210 210 255
408.664 -277.341 -134.228 210 210 210 255
408.664 -277.341 -130.872 210 210 210 255
408.664 -277.341 -127.517 210 210 210 255
408.664 -277.341 -124.161 210 210 210 255
408.664 -277.341 -120.805 210 210 210 255
408.664 -277.341 -117.45 210 210 210 255
408.664 -277.341 -114.094 210 210 210 255
408.664 -277.341 -110.738 210 210 210 255
408.664 -277.341 -107.383 210 210 210 255
408.664 -277.341 -104.027 210 210 210 255
408.664 -277.341 -100.671 210 210 210 255
408.664 -277.341 -97.3154 210 210 210 255
408.664 -277.341 -93.9598 210 210 210 255
408.664 -277.341 -90.6039 210 210 210 255
408.664 -277.341 -87.2484 210 210 210 255
408.664 -277.341 -83.8926 210 210 210 255
408.664 -277.341 -80.537 210 210 210 255
408.664 -277.341 -77.1812 210 210 210 255
408.664 -277.341 -73.8254 210 210 210 255
408.664 -277.341 -70.4698 210 210 210 255
408.664 -277.341 -67.114 210 210 210 255
408.664 -277.341 -63.7584 210 210 210 255
408.664 -277.341 -60.4026 210 210 210 255
408.664 -277.341 -57.047 210 210 210 255
408.664 -277.341 -53.6912 210 210 210 255
408.664 -277.341 -50.3354 210 210 210 255
408.664 -277.341 -46.9799 210 210 210 255
408.664 -277.341 -43.6241 210 210 210 255
408.664 -277.341 -40.2686 210 210 210 255
408.664 -277.341 -36.9128 210 210 210 255
408.664 -277.341 -33.5571 210 210 210 255
408.664 -277.341 -30.2014 210 210 210 255
408.664 -277.341 -26.8456 210 210 210 255
408.664 -277.341 -23.49 210 210 210 255
408.664 -277.341 -20.1342 210 210 210 255
408.664 -277.341 -16.7786 210 210 210 255
408.664 -277.341 -13.4229 210 210 210 255
408.664 -277.341 -10.0672 210 210 210 255
408.664 -277.341 -6.71149 210 210 210 255
408.664 -277.341 -3.35571 210 210 210 255
408.664 -277.341 0 210 210 210 255
411.443 -269.975 -500 210 210 210 255
411.443 -269.975 -496.644 210 210 210 255
411.443 -269.975 -493.289 210 210 210 255
411.443 -269.975 -489.933 210 210 210 255
411.443 -269.975 -486.577 210 210 210 255
411.443 -269.975 -483.221 210 210 210 255
411.443 -269.975 -479.866 210 210 210 255
411.443 -269.975 -476.51 210 210 210 255
411.443 -269.975 -473.154 210 210 210 255
411.443 -269.975 -469.799 210 210 210 255
411.443 -269.975 -466.443 210 210 210 255
411.443 -269.975 -463.087 210 210 210 255
411.443 -269.975 -459.732 210 210 210 255
411.443 -269.975 -456.376 210 210 210 255
411.443 -269.975 -453.02 210 210 210 255
411.443 -269.975 -449.664 210 210 210 255
411.443 -269.975 -446.309 210 210 210 255
411.443 -269.975 -442.953 210 210 210 255
411.443 -269.975 -439.597 210 210 210 255
411.443 -269.975 -436.242 210 210 210 255
411.443 -269.975 -432.886 210 210 210 255
411.443 -269.975 -429.53 210 210 210 255
411.443 -269.975 -426.175 210 210 210 255
411.443 -269.975 -422.819 210 210 210 255
411.443 -269.975 -419.463 210 210 210 255
411.443 -269.975 -416.107 210 210 210 255
411.443 -269.975 -412.752 210 210 210 255
411.443 -269.975 -409.396 210 210 210 255
411.443 -269.975 -406.04 210 210 210 255
411.443 -269.975 -402.685 210 210 210 255
411.443 -269.975 -399.329 210 210 210 255
411.443 -269.975 -395.973 210 210 210 255
411.443 -269.975 -392.617 210 210 210 255
411.443 -269.975 -389.262 210 210 210 255
411.443 -269.975 -385.906 210 210 210 255
411.443 -269.975 -382.55 210 210 210 255
411.443 -269.975 -379.195 210 210 210 255
411.443 -269.975 -375.839 210 210 210 255
411.443 -269.975 -372.483 210 210 210 255
411.443 -269.975 -369.128 210 210 210 255
411.443 -269.975 -365.772 210 210 210 255
411.443 -269.975 -362.416 210 210 210 255
411.443 -269.975 -359.06 210 210 210 255
411.443 -269.975 -355.705 210 210 210 255
411.443 -269.975 -352.349 210 210 210 255
411.443 -269.975 -348.993 210 210 210 255
411.443 -269.975 -345.638 210 210 210 255
411.443 -269.975 -342.282 210 210 210 255
411.443 -269.975 -338.926 210 210 210 255
411.443 -269.975 -335.571 210 210 210 255
411.443 -269.975 -332.215 210 210 210 255
411.443 -269.975 -328.859 210 210 210 255
411.443 -269.975 -325.503 210 210 210 255
411.443 -269.975 -322.148 210 210 210 255
411.443 -269.975 -318.792 210 210 210 255
411.443 -269.975 -315.436 210 210 210 255
411.443 -269.975 -312.081 210 210 210 255
411.443 -269.975 -308.725 210 210 210 255
411.443 -269.975 -305.369 210 210 210 255
411.443 -269.975 -302.013 210 210 210 255
411.443 -269.975 -298.658 210 210 210 255
411.443 -269.975 -295.302 210 210 210 255
411.443 -269.975 -291.946 210 210 210 255
411.443 -269.975 -288.591 210 210 210 255
411.443 -269.975 -285.235 210 210 210 255
411.443 -269.975 -281.879 210 210 210 255
411.443 -269.975 -278.523 210 210 210 255
411.443 -269.975 -275.168 210 210 210 255
411.443 -269.975 -271.812 210 210 210 255
411.443 -269.975 -268.456 210 210 210 255
411.443 -269.975 -265.101 210 210 210 255
411.443 -269.975 -261.745 210 210 210 255
411.443 -269.975 -258.389 210 210 210 255
411.443 -269.975 -255.034 210 210 210 255
411.443 -269.975 -251.678 210 210 210 255
411.443 -269.975 -248.322 210 210 210 255
411.443 -269.975 -244.966 210 210 210 255
411.443 -269.975 -241.611 210 210 210 255
411.443 -269.975 -238.255 210 210 210 255
411.443 -269.975 -234.899 210 210 210 255
411.443 -269.975 -231.544 210 210 210 255
411.443 -269.975 -228.188 210 210 210 255
411.443 -269.975 -224.832 210 210 210 255
411.443 -269.975 -221.477 210 210 210 255
411.443 -269.975 -218.121 210 210 210 255
411.443 -269.975 -214.765 210 210 210 255
411.443 -269.975 -211.409 210 210 210 255
411.443 -269.975 -208.054 210 210 210 255
411.443 -269.975 -204.698 210 210 210 255
411.443 -269.975 -201.342 210 210 210 255
411.443 -269.975 -197.987 210 210 210 255
411.443 -269.975 -194.631 210 210 210 255
411.443 -269.975 -191.275 210 210 210 255
411.443 -269.975 -187.919 210 210 210 255
411.443 -269.975 -184.564 210 210 210 255
411.443 -269.975 -181.208 210 210 210 255
411.443 -269.975 -177.852 210 210 210 255
411.443 -269.975 -174.497 210 210 210 255
411.443 -269.975 -171.141 210 210 210 255
411.443 -269.975 -167.785 210 210 210 255
411.443 -269.975 -164.43 210 210 210 255
411.443 -269.975 -161.074 210 210 210 255
411.443 -269.975 -157.718 210 210 210 255
411.443 -269.975 -154.362 210 210 210 255
411.443 -269.975 -151.007 210 210 210 255
411.443 -269.975 -147.651 210 210 210 255
411.443 -269.975 -144.295 210 210 210 255
411.443 -269.975 -140.94 210 210 210 255
411.443 -269.975 -137.584 210 210 210 255
411.443 -269.975 -134.228 210 210 210 255
411.443 -269.975 -130.872 210 210 210 255
411.443 -269.975 -127.517 210 210 210 255
411.443 -269.975 -124.161 210 210 210 255
411.443 -269.975 -120.805 210 210 210 255
411.443 -269.975 -117.45 210 210 210 255
411.443 -269.975 -114.094 210 210 210 255
411.443 -269.975 -110.738 210 210 210 255
411.443 -269.975 -107.383 210 210 210 255
411.443 -269.975 -104.027 210 210 210 255
411.443 -269.975 -100.671 210 210 210 255
411.443 -269.975 -97.3154 210 210 210 255
411.443 -269.975 -93.9598 210 210 210 255
411.443 -269.975 -90.6041 210 210 210 255
411.443 -269.975 -87.2483 210 210 210 255
411.443 -269.975 -83.8926 210 210 210 255
411.443 -269.975 -80.5369 210 210 210 255
411.443 -269.975 -77.1812 210 210 210 255
411.443 -269.975 -73.8254 210 210 210 255
411.443 -269.975 -70.4697 210 210 210 255
411.443 -269.975 -67.1141 210 210 210 255
411.443 -269.975 -63.7584 210 210 210 255
411.443 -269.975 -60.4026 210 210 210 255
411.443 -269.975 -57.0469 210 210 210 255
411.443 -269.975 -53.6913 210 210 210 255
411.443 -269.975 -50.3356 210 210 210 255
411.443 -269.975 -46.9798 210 210 210 255
411.443 -269.975 -43.6241 210 210 210 255
411.443 -269.975 -40.2684 210 210 210 255
411.443 -269.975 -36.9126 210 210 210 255
411.443 -269.975 -33.557 210 210 210 255
411.443 -269.975 -30.2014 210 210 210 255
411.443 -269.975 -26.8456 210 210 210 255
411.443 -269.975 -23.49 210 210 210 255
411.443 -269.975 -20.1342 210 210 210 255
411.443 -269.975 -16.7785 210 210 210 255
411.443 -269.975 -13.4229 210 210 210 255
411.443 -269.975 -10.0671 210 210 210 255
411.443 -269.975 -6.71143 210 210 210 255
411.443 -269.975 -3.35577 210 210 210 255
411.443 -269.975 0 210 210 210 255
414.15 -262.586 -500 210 210 210 255
414.15 -262.586 -496.644 210 210 210 255
414.15 -262.586 -493.289 210 210 210 255
414.15 -262.586 -489.933 210 210 210 255
414.15 -262.586 -486.577 210 210 210 255
414.15 -262.586 -483.221 210 210 210 255
414.15 -262.586 -479.866 210 210 210 255
414.15 -262.586 -476.51 210 210 210 255
414.15 -262.586 -473.154 210 210 210 255
414.15 -262.586 -469.799 210 210 210 255
414.15 -262.586 -466.443 210 210 210 255
414.15 -262.586 -463.087 210 210 210 255
414.15 -262.586 -459.732 210 210 210 255
414.15 -262.586 -456.376 210 210 210 255
414.15 -262.586 -453.02 210 210 210 255
414.15 -262.586 -449.664 210 210 210 255
414.15 -262.586 -446.309 210 210 210 255
414.15 -262.586 -442.953 210 210 210 255
414.15 -262.586 -439.597 210 210 210 255
414.15 -262.586 -436.242 210 210 210 255
414.15 -262.586 -432.886 210 210 210 255
414.15 -262.586 -429.53 210 210 210 255
414.15 -262.586 -426.175 210 210 210 255
414.15 -262.586 -422.819 210 210 210 255
414.15 -262.586 -419.463 210 210 210 255
414.15 -262.586 -416.107 210 210 210 255
414.15 -262.586 -412.752 210 210 210 255
414.15 -262.586 -409.396 210 210 210 255
414.15 -262.586 -406.04 210 210 210 255
414.15 -262.586 -402.685 210 210 210 255
414.15 -262.586 -399.329 210 210 210 255
414.15 -262.586 -395.973 210 210 210 255
414.15 -262.586 -392.618 210 210 210 255
414.15 -262.586 -389.262 210 210 210 255
414.15 -262.586 -385.906 210 210 210 255
414.15 -262.586 -382.55 210 210 210 255
414.15 -262.586 -379.195 210 210 210 255
414.15 -262.586 -375.839 210 210 210 255
414.15 -262.586 -372.483 210 210 210 255
414.15 -262.586 -369.128 210 210 210 255
414.15 -262.586 -365.772 210 210 210 255
414.15 -262.586 -362.416 210 210 210 255
414.15 -262.586 -359.06 210 210 210 255
414.15 -262.586 -355.705 210 210 210 255
414.15 -262.586 -352.349 210 210 210 255
414.15 -262.586 -348.993 210 210 210 255
414.15 -262.586 -345.638 210 210 210 255
414.15 -262.586 -342.282 210 210 210 255
414.15 -262.586 -338.926 210 210 210 255
414.15 -262.586 -335.57 210 210 210 255
414.15 -262.586 -332.215 210 210 210 255
414.15 -262.586 -328.859 210 210 210 255
414.15 -262.586 -325.503 210 210 210 255
414.15 -262.586 -322.148 210 210 210 255
414.15 -262.586 -318.792 210 210 210 255
414.15 -262.586 -315.436 210 210 210 255
414.15 -262.586 -312.081 210 210 210 255
414.15 -262.586 -308.725 210 210 210 255
414.15 -262.586 -305.369 210 210 210 255
414.15 -262.586 -302.013 210 210 210 255
414.15 -262.586 -298.658 210 210 210 255
414.15 -262.586 -295.302 210 210 210 255
414.15 -262.586 -291.946 210 210 210 255
414.15 -262.586 -288.591 210 210 210 255
414.15 -262.586 -285.235 210 210 210 255
414.15 -262.586 -281.879 210 210 210 255
414.15 -262.586 -278.523 210 210 210 255
414.15 -262.586 -275.168 210 210 210 255
414.15 -262.586 -271.812 210 210 210 255
414.15 -262.586 -268.456 210 210 210 255
414.15 -262.586 -265.101 210 210 210 255
414.15 -262.586 -261.745 210 210 210 255
414.15 -262.586 -258.389 210 210 210 255
414.15 -262.586 -255.034 210 210 210 255
414.15 -262.586 -251.678 210 210 210 255
414.15 -262.586 -248.322 210 210 210 255
414.15 -262.586 -244.966 210 210 210 255
414.15 -262.586 -241.611 210 210 210 255
414.15 -262.586 -238.255 210 210 210 255
414.15 -262.586 -234.899 210 210 210 255
414.15 -262.586 -231.544 210 210 210 255
414.15 -262.586 -228.188 210 210 210 255
414.15 -262.586 -224.832 210 210 210 255
414.15 -262.586 -221.476 210 210 210 255
414.15 -262.586 -218.121 210 210 210 255
414.15 -262.586 -214.765 210 210 210 255
414.15 -262.586 -211.409 210 210 210 255
414.15 -262.586 -208.054 210 210 210 255
414.15 -262.586 -204.698 210 210 210 255
414.15 -262.586 -201.342 210 210 210 255
414.15 -262.586 -197.987 210 210 210 255
414.15 -262.586 -194.631 210 210 210 255
414.15 -262.586 -191.275 210 210 210 255
414.15 -262.586 -187.919 210 210 210 255
414.15 -262.586 -184.564 210 210 210 255
414.15 -262.586 -181.208 210 210 210 255
414.15 -262.586 -177.852 210 210 210 255
414.15 -262.586 -174.497 210 210 210 255
414.15 -262.586 -171.141 210 210 210 255
414.15 -262.586 -167.785 210 210 210 255
414.15 -262.586 -164.429 210 210 210 255
414.15 -262.586 -161.074 210 210 210 255
414.15 -262.586 -157.718 210 210 210 255
414.15 -262.586 -154.362 210 210 210 255
414.15 -262.586 -151.007 210 210 210 255
414.15 -262.586 -147.651 210 210 210 255
414.15 -262.586 -144.295 210 210 210 255
414.15 -262.586 -140.94 210 210 210 255
414.15 -262.586 -137.584 210 210 210 255
414.15 -262.586 -134.228 210 210 210 255
414.15 -262.586 -130.872 210 210 210 255
414.15 -262.586 -127.517 210 210 210 255
414.15 -262.586 -124.161 210 210 210 255
414.15 -262.586 -120.805 210 210 210 255
414.15 -262.586 -117.45 210 210 210 255
414.15 -262.586 -114.094 210 210 210 255
414.15 -262.586 -110.738 210 210 210 255
414.15 -262.586 -107.383 210 210 210 255
414.15 -262.586 -104.027 210 210 210 255
414.15 -262.586 -100.671 210 210 210 255
414.15 -262.586 -97.3155 210 210 210 255
414.15 -262.586 -93.9597 210 210 210 255
414.15 -262.586 -90.604 210 210 210 255
414.15 -262.586 -87.2484 210 210 210 255
414.15 -262.586 -83.8927 210 210 210 255
414.15 -262.586 -80.5369 210 210 210 255
414.15 -262.586 -77.1813 210 210 210 255
414.15 -262.586 -73.8254 210 210 210 255
414.15 -262.586 -70.4697 210 210 210 255
414.15 -262.586 -67.1141 210 210 210 255
414.15 -262.586 -63.7584 210 210 210 255
414.15 -262.586 -60.4027 210 210 210 255
414.15 -262.586 -57.047 210 210 210 255
414.15 -262.586 -53.6913 210 210 210 255
414.15 -262.586 -50.3356 210 210 210 255
414.15 -262.586 -46.9798 210 210 210 255
414.15 -262.586 -43.6243 210 210 210 255
414.15 -262.586 -40.2684 210 210 210 255
414.15 -262.586 -36.9127 210 210 210 255
414.15 -262.586 -33.5571 210 210 210 255
414.15 -262.586 -30.2015 210 210 210 255
414.15 -262.586 -26.8456 210 210 210 255
414.15 -262.586 -23.4899 210 210 210 255
414.15 -262.586 -20.1342 210 210 210 255
414.15 -262.586 -16.7786 210 210 210 255
414.15 -262.586 -13.4228 210 210 210 255
414.15 -262.586 -10.067 210 210 210 255
414.15 -262.586 -6.71143 210 210 210 255
414.15 -262.586 -3.35577 210 210 210 255
414.15 -262.586 0 210 210 210 255
416.782 -255.175 -500 210 210 210 255
416.782 -255.175 -496.644 210 210 210 255
416.782 -255.175 -493.289 210 210 210 255
416.782 -255.175 -489.933 210 210 210 255
416.782 -255.175 -486.577 210 210 210 255
416.782 -255.175 -483.221 210 210 210 255
416.782 -255.175 -479.866 210 210 210 255
416.782 -255.175 -476.51 210 210 210 255
416.782 -255.175 -473.154 210 210 210 255
416.782 -255.175 -469.799 210 210 210 255
416.782 -255.175 -466.443 210 210 210 255
416.782 -255.175 -463.087 210 210 210 255
416.782 -255.175 -459.732 210 210 210 255
416.782 -255.175 -456.376 210 210 210 255
