ply
format ascii 1.0
element vertex 1178
property float x
property float y
property float z
property uchar red
property uchar green
property uchar blue
property uchar alpha
end_header
156.534 217.814 -67.1733 210 210 210 255
156.534 217.814 -63.2278 210 210 210 255
156.534 217.814 -59.2819 210 210 210 255
156.534 217.814 -55.3354 210 210 210 255
156.534 217.814 -51.3882 210 210 210 255
156.534 217.814 -47.4404 210 210 210 255
156.534 217.814 -43.4918 210 210 210 255
156.534 217.814 -39.5425 210 210 210 255
156.534 217.814 -35.5925 210 210 210 255
156.534 217.814 -31.6416 210 210 210 255
156.534 217.814 -27.6899 210 210 210 255
156.534 217.814 -23.7373 210 210 210 255
156.534 217.814 -19.7836 210 210 210 255
156.534 217.814 -15.8291 210 210 210 255
156.534 217.814 -11.8735 210 210 210 255
156.534 217.814 -7.91681 210 210 210 255
156.534 217.814 -3.95898 210 210 210 255
156.534 217.814 0 210 210 210 255
156.352 227.777 -390 210 210 210 255
156.352 227.777 -386.08 210 210 210 255
156.352 227.777 -382.159 210 210 210 255
156.352 227.777 -378.237 210 210 210 255
156.352 227.777 -374.314 210 210 210 255
156.352 227.777 -370.39 210 210 210 255
156.352 227.777 -366.465 210 210 210 255
156.352 227.777 -362.538 210 210 210 255
156.352 227.777 -358.611 210 210 210 255
156.352 227.777 -354.683 210 210 210 255
156.352 227.777 -350.755 210 210 210 255
156.352 227.777 -346.825 210 210 210 255
156.352 227.777 -342.895 210 210 210 255
156.352 227.777 -338.964 210 210 210 255
156.352 227.777 -335.032 210 210 210 255
156.352 227.777 -331.1 210 210 210 255
156.352 227.777 -327.167 210 210 210 255
156.352 227.777 -323.234 210 210 210 255
156.352 227.777 -319.3 210 210 210 255
156.352 227.777 -315.365 210 210 210 255
156.352 227.777 -311.431 210 210 210 255
156.352 227.777 -307.495 210 210 210 255
156.352 227.777 -303.56 210 210 210 255
156.352 227.777 -299.623 210 210 210 255
156.352 227.777 -295.687 210 210 210 255
156.352 227.777 -291.75 210 210 210 255
156.352 227.777 -287.813 210 210 210 255
156.352 227.777 -283.876 210 210 210 255
156.352 227.777 -279.938 210 210 210 255
156.352 227.777 -276 210 210 210 255
156.352 227.777 -272.062 210 210 210 255
156.352 227.777 -268.124 210 210 210 255
156.352 227.777 -264.185 210 210 210 255
156.352 227.777 -260.247 210 210 210 255
156.352 227.777 -256.308 210 210 210 255
156.352 227.777 -252.369 210 210 210 255
156.352 227.777 -248.43 210 210 210 255
156.352 227.777 -244.491 210 210 210 255
156.352 227.777 -240.552 210 210 210 255
156.352 227.777 -236.613 210 210 210 255
156.352 227.777 -232.674 210 210 210 255
156.352 227.777 -228.735 210 210 210 255
156.352 227.777 -224.795 210 210 210 255
156.352 227.777 -220.856 210 210 210 255
156.352 227.777 -216.917 210 210 210 255
156.352 227.777 -212.977 210 210 210 255
156.352 227.777 -209.038 210 210 210 255
156.352 227.777 -205.098 210 210 210 255
156.352 227.777 -201.159 210 210 210 255
156.352 227.777 -197.22 210 210 210 255
156.352 227.777 -193.28 210 210 210 255
156.352 227.777 -189.341 210 210 210 255
156.352 227.777 -185.402 210 210 210 255
156.352 227.777 -181.462 210 210 210 255
156.352 227.777 -177.523 210 210 210 255
156.352 227.777 -173.583 210 210 210 255
156.352 227.777 -169.644 210 210 210 255
156.352 227.777 -165.704 210 210 210 255
156.352 227.777 -161.765 210 210 210 255
156.352 227.777 -157.825 210 210 210 255
156.352 227.777 -153.886 210 210 210 255
156.352 227.777 -149.946 210 210 210 255
156.352 227.777 -146.007 210 210 210 255
156.352 227.777 -142.067 210 210 210 255
156.352 227.777 -138.127 210 210 210 255
156.352 227.777 -134.187 210 210 210 255
156.352 227.777 -130.247 210 210 210 255
156.352 227.777 -126.307 210 210 210 255
156.352 227.777 -122.366 210 210 210 255
156.352 227.777 -118.426 210 210 210 255
156.352 227.777 -114.485 210 210 210 255
156.352 227.777 -110.544 210 210 210 255
156.352 227.777 -106.603 210 210 210 255
156.352 227.777 -102.662 210 210 210 255
156.352 227.777 -98.7198 210 210 210 255
156.352 227.777 -94.7778 210 210 210 255
156.352 227.777 -90.8355 210 210 210 255
156.352 227.777 -86.8929 210 210 210 255
156.352 227.777 -82.9498 210 210 210 255
156.352 227.777 -79.0063 210 210 210 255
156.352 227.777 -75.0624 210 210 210 255
156.352 227.777 -71.1181 210 210 210 255
156.352 227.777 -67.1732 210 210 210 255
156.352 227.777 -63.2278 210 210 210 255
156.352 227.777 -59.2819 210 210 210 255
156.352 227.777 -55.3354 210 210 210 255
156.352 227.777 -51.3882 210 210 210 255
156.352 227.777 -47.4404 210 210 210 255
156.352 227.777 -43.4919 210 210 210 255
156.352 227.777 -39.5426 210 210 210 255
156.352 227.777 -35.5925 210 210 210 255
156.352 227.777 -31.6417 210 210 210 255
156.352 227.777 -27.6899 210 210 210 255
156.352 227.777 -23.7372 210 210 210 255
156.352 227.777 -19.7837 210 210 210 255
156.352 227.777 -15.8291 210 210 210 255
156.352 227.777 -11.8735 210 210 210 255
156.352 227.777 -7.91687 210 210 210 255
156.352 227.777 -3.95898 210 210 210 255
156.352 227.777 0 210 210 210 255
156.164 237.979 -390 210 210 210 255
156.164 237.979 -386.08 210 210 210 255
156.164 237.979 -382.159 210 210 210 255
156.164 237.979 -378.237 210 210 210 255
156.164 237.979 -374.314 210 210 210 255
156.164 237.979 -370.39 210 210 210 255
156.164 237.979 -366.465 210 210 210 255
156.164 237.979 -362.538 210 210 210 255
156.164 237.979 -358.611 210 210 210 255
156.164 237.979 -354.683 210 210 210 255
156.164 237.979 -350.755 210 210 210 255
156.164 237.979 -346.825 210 210 210 255
156.164 237.979 -342.895 210 210 210 255
156.164 237.979 -338.964 210 210 210 255
156.164 237.979 -335.032 210 210 210 255
156.164 237.979 -331.1 210 210 210 255
156.164 237.979 -327.167 210 210 210 255
156.164 237.979 -323.234 210 210 210 255
156.164 237.979 -319.3 210 210 210 255
156.164 237.979 -315.365 210 210 210 255
156.164 237.979 -311.431 210 210 210 255
156.164 237.979 -307.495 210 210 210 255
156.164 237.979 -303.56 210 210 210 255
156.164 237.979 -299.623 210 210 210 255
156.164 237.979 -295.687 210 210 210 255
156.164 237.979 -291.75 210 210 210 255
156.164 237.979 -287.813 210 210 210 255
156.164 237.979 -283.876 210 210 210 255
156.164 237.979 -279.938 210 210 210 255
156.164 237.979 -276 210 210 210 255
156.164 237.979 -272.062 210 210 210 255
156.164 237.979 -268.124 210 210 210 255
156.164 237.979 -264.186 210 210 210 255
156.164 237.979 -260.247 210 210 210 255
156.164 237.979 -256.308 210 210 210 255
156.164 237.979 -252.369 210 210 210 255
156.164 237.979 -248.43 210 210 210 255
156.164 237.979 -244.491 210 210 210 255
156.164 237.979 -240.552 210 210 210 255
156.164 237.979 -236.613 210 210 210 255
156.164 237.979 -232.674 210 210 210 255
156.164 237.979 -228.735 210 210 210 255
156.164 237.979 -224.795 210 210 210 255
156.164 237.979 -220.856 210 210 210 255
156.164 237.979 -216.917 210 210 210 255
156.164 237.979 -212.977 210 210 210 255
156.164 237.979 -209.038 210 210 210 255
156.164 237.979 -205.098 210 210 210 255
156.164 237.979 -201.159 210 210 210 255
156.164 237.979 -197.22 210 210 210 255
156.164 237.979 -193.28 210 210 210 255
156.164 237.979 -189.341 210 210 210 255
156.164 237.979 -185.402 210 210 210 255
156.164 237.979 -181.462 210 210 210 255
156.164 237.979 -177.523 210 210 210 255
156.164 237.979 -173.583 210 210 210 255
156.164 237.979 -169.644 210 210 210 255
156.164 237.979 -165.704 210 210 210 255
156.164 237.979 -161.765 210 210 210 255
156.164 237.979 -157.825 210 210 210 255
156.164 237.979 -153.886 210 210 210 255
156.164 237.979 -149.946 210 210 210 255
156.164 237.979 -146.007 210 210 210 255
156.164 237.979 -142.067 210 210 210 255
156.164 237.979 -138.127 210 210 210 255
156.164 237.979 -134.187 210 210 210 255
156.164 237.979 -130.247 210 210 210 255
156.164 237.979 -126.307 210 210 210 255
156.164 237.979 -122.366 210 210 210 255
156.164 237.979 -118.426 210 210 210 255
156.164 237.979 -114.485 210 210 210 255
156.164 237.979 -110.544 210 210 210 255
156.164 237.979 -106.603 210 210 210 255
156.164 237.979 -102.662 210 210 210 255
156.164 237.979 -98.7198 210 210 210 255
156.164 237.979 -94.7779 210 210 210 255
156.164 237.979 -90.8355 210 210 210 255
156.164 237.979 -86.8928 210 210 210 255
156.164 237.979 -82.9498 210 210 210 255
156.164 237.979 -79.0063 210 210 210 255
156.164 237.979 -75.0625 210 210 210 255
156.164 237.979 -71.1181 210 210 210 255
156.164 237.979 -67.1732 210 210 210 255
156.164 237.979 -63.2278 210 210 210 255
156.164 237.979 -59.2819 210 210 210 255
156.164 237.979 -55.3354 210 210 210 255
156.164 237.979 -51.3882 210 210 210 255
156.164 237.979 -47.4404 210 210 210 255
156.164 237.979 -43.4918 210 210 210 255
156.164 237.979 -39.5425 210 210 210 255
156.164 237.979 -35.5925 210 210 210 255
156.164 237.979 -31.6416 210 210 210 255
156.164 237.979 -27.6899 210 210 210 255
156.164 237.979 -23.7372 210 210 210 255
156.164 237.979 -19.7837 210 210 210 255
156.164 237.979 -15.8291 210 210 210 255
156.164 237.979 -11.8735 210 210 210 255
156.164 237.979 -7.91681 210 210 210 255
156.164 237.979 -3.95898 210 210 210 255
156.164 237.979 0 210 210 210 255
155.968 248.427 -390 210 210 210 255
155.968 248.427 -386.08 210 210 210 255
155.968 248.427 -382.159 210 210 210 255
155.968 248.427 -378.237 210 210 210 255
155.968 248.427 -374.314 210 210 210 255
155.968 248.427 -370.39 210 210 210 255
155.968 248.427 -366.465 210 210 210 255
155.968 248.427 -362.538 210 210 210 255
155.968 248.427 -358.611 210 210 210 255
155.968 248.427 -354.683 210 210 210 255
155.968 248.427 -350.755 210 210 210 255
155.968 248.427 -346.825 210 210 210 255
155.968 248.427 -342.895 210 210 210 255
155.968 248.427 -338.964 210 210 210 255
155.968 248.427 -335.032 210 210 210 255
155.968 248.427 -331.1 210 210 210 255
155.968 248.427 -327.167 210 210 210 255
155.968 248.427 -323.234 210 210 210 255
155.968 248.427 -319.3 210 210 210 255
155.968 248.427 -315.366 210 210 210 255
155.968 248.427 -311.431 210 210 210 255
155.968 248.427 -307.495 210 210 210 255
155.968 248.427 -303.56 210 210 210 255
155.968 248.427 -299.623 210 210 210 255
155.968 248.427 -295.687 210 210 210 255
155.968 248.427 -291.75 210 210 210 255
155.968 248.427 -287.813 210 210 210 255
155.968 248.427 -283.876 210 210 210 255
155.968 248.427 -279.938 210 210 210 255
155.968 248.427 -276 210 210 210 255
155.968 248.427 -272.062 210 210 210 255
155.968 248.427 -268.124 210 210 210 255
155.968 248.427 -264.185 210 210 210 255
155.968 248.427 -260.247 210 210 210 255
155.968 248.427 -256.308 210 210 210 255
155.968 248.427 -252.369 210 210 210 255
155.968 248.427 -248.43 210 210 210 255
155.968 248.427 -244.491 210 210 210 255
155.968 248.427 -240.552 210 210 210 255
155.968 248.427 -236.613 210 210 210 255
155.968 248.427 -232.674 210 210 210 255
155.968 248.427 -228.735 210 210 210 255
155.968 248.427 -224.795 210 210 210 255
155.968 248.427 -220.856 210 210 210 255
155.968 248.427 -216.917 210 210 210 255
155.968 248.427 -212.977 210 210 210 255
155.968 248.427 -209.038 210 210 210 255
155.968 248.427 -205.098 210 210 210 255
155.968 248.427 -201.159 210 210 210 255
155.968 248.427 -197.22 210 210 210 255
155.968 248.427 -193.28 210 210 210 255
155.968 248.427 -189.341 210 210 210 255
155.968 248.427 -185.401 210 210 210 255
155.968 248.427 -181.462 210 210 210 255
155.968 248.427 -177.523 210 210 210 255
155.968 248.427 -173.583 210 210 210 255
155.968 248.427 -169.644 210 210 210 255
155.968 248.427 -165.704 210 210 210 255
155.968 248.427 -161.765 210 210 210 255
155.968 248.427 -157.825 210 210 210 255
155.968 248.427 -153.886 210 210 210 255
155.968 248.427 -149.946 210 210 210 255
155.968 248.427 -146.007 210 210 210 255
155.968 248.427 -142.067 210 210 210 255
155.968 248.427 -138.127 210 210 210 255
155.968 248.427 -134.187 210 210 210 255
155.968 248.427 -130.247 210 210 210 255
155.968 248.427 -126.307 210 210 210 255
155.968 248.427 -122.366 210 210 210 255
155.968 248.427 -118.426 210 210 210 255
155.968 248.427 -114.485 210 210 210 255
155.968 248.427 -110.544 210 210 210 255
155.968 248.427 -106.603 210 210 210 255
155.968 248.427 -102.662 210 210 210 255
155.968 248.427 -98.7198 210 210 210 255
155.968 248.427 -94.7778 210 210 210 255
155.968 248.427 -90.8356 210 210 210 255
155.968 248.427 -86.8928 210 210 210 255
155.968 248.427 -82.9498 210 210 210 255
155.968 248.427 -79.0063 210 210 210 255
155.968 248.427 -75.0624 210 210 210 255
155.968 248.427 -71.1181 210 210 210 255
155.968 248.427 -67.1732 210 210 210 255
155.968 248.427 -63.2278 210 210 210 255
155.968 248.427 -59.2819 210 210 210 255
155.968 248.427 -55.3354 210 210 210 255
155.968 248.427 -51.3882 210 210 210 255
155.968 248.427 -47.4404 210 210 210 255
155.968 248.427 -43.4918 210 210 210 255
155.968 248.427 -39.5426 210 210 210 255
155.968 248.427 -35.5925 210 210 210 255
155.968 248.427 -31.6417 210 210 210 255
155.968 248.427 -27.6899 210 210 210 255
155.968 248.427 -23.7372 210 210 210 255
155.968 248.427 -19.7836 210 210 210 255
155.968 248.427 -15.8291 210 210 210 255
155.968 248.427 -11.8735 210 210 210 255
155.968 248.427 -7.91681 210 210 210 255
155.968 248.427 -3.95898 210 210 210 255
155.968 248.427 0 210 210 210 255
155.765 259.13 -390 210 210 210 255
155.765 259.13 -386.08 210 210 210 255
155.765 259.13 -382.159 210 210 210 255
155.765 259.13 -378.237 210 210 210 255
155.765 259.13 -374.314 210 210 210 255
155.765 259.13 -370.39 210 210 210 255
155.765 259.13 -366.465 210 210 210 255
155.765 259.13 -362.538 210 210 210 255
155.765 259.13 -358.611 210 210 210 255
155.765 259.13 -354.683 210 210 210 255
155.765 259.13 -350.755 210 210 210 255
155.765 259.13 -346.825 210 210 210 255
155.765 259.13 -342.895 210 210 210 255
155.765 259.13 -338.964 210 210 210 255
155.765 259.13 -335.032 210 210 210 255
155.765 259.13 -331.1 210 210 210 255
155.765 259.13 -327.167 210 210 210 255
155.765 259.13 -323.234 210 210 210 255
155.765 259.13 -319.3 210 210 210 255
155.765 259.13 -315.365 210 210 210 255
155.765 259.13 -311.431 210 210 210 255
155.765 259.13 -307.495 210 210 210 255
155.765 259.13 -303.56 210 210 210 255
155.765 259.13 -299.623 210 210 210 255
155.765 259.13 -295.687 210 210 210 255
155.765 259.13 -291.75 210 210 210 255
155.765 259.13 -287.813 210 210 210 255
155.765 259.13 -283.876 210 210 210 255
155.765 259.13 -279.938 210 210 210 255
155.765 259.13 -276 210 210 210 255
155.765 259.13 -272.062 210 210 210 255
155.765 259.13 -268.124 210 210 210 255
155.765 259.13 -264.185 210 210 210 255
155.765 259.13 -260.247 210 210 210 255
155.765 259.13 -256.308 210 210 210 255
155.765 259.13 -252.369 210 210 210 255
155.765 259.13 -248.43 210 210 210 255
155.765 259.13 -244.491 210 210 210 255
155.765 259.13 -240.552 210 210 210 255
155.765 259.13 -236.613 210 210 210 255
155.765 259.13 -232.674 210 210 210 255
155.765 259.13 -228.735 210 210 210 255
155.765 259.13 -224.795 210 210 210 255
155.765 259.13 -220.856 210 210 210 255
155.765 259.13 -216.917 210 210 210 255
155.765 259.13 -212.977 210 210 210 255
155.765 259.13 -209.038 210 210 210 255
155.765 259.13 -205.098 210 210 210 255
155.765 259.13 -201.159 210 210 210 255
155.765 259.13 -197.22 210 210 210 255
155.765 259.13 -193.28 210 210 210 255
155.765 259.13 -189.341 210 210 210 255
155.765 259.13 -185.402 210 210 210 255
155.765 259.13 -181.462 210 210 210 255
155.765 259.13 -177.523 210 210 210 255
155.765 259.13 -173.583 210 210 210 255
155.765 259.13 -169.644 210 210 210 255
155.765 259.13 -165.704 210 210 210 255
155.765 259.13 -161.765 210 210 210 255
155.765 259.13 -157.825 210 210 210 255
155.765 259.13 -153.886 210 210 210 255
155.765 259.13 -149.946 210 210 210 255
155.765 259.13 -146.007 210 210 210 255
155.765 259.13 -142.067 210 210 210 255
155.765 259.13 -138.127 210 210 210 255
155.765 259.13 -134.187 210 210 210 255
155.765 259.13 -130.247 210 210 210 255
155.765 259.13 -126.307 210 210 210 255
155.765 259.13 -122.366 210 210 210 255
155.765 259.13 -118.426 210 210 210 255
155.765 259.13 -114.485 210 210 210 255
155.765 259.13 -110.544 210 210 210 255
155.765 259.13 -106.603 210 210 210 255
155.765 259.13 -102.661 210 210 210 255
155.765 259.13 -98.7199 210 210 210 255
155.765 259.13 -94.7779 210 210 210 255
155.765 259.13 -90.8356 210 210 210 255
155.765 259.13 -86.8929 210 210 210 255
155.765 259.13 -82.9498 210 210 210 255
155.765 259.13 -79.0063 210 210 210 255
155.765 259.13 -75.0624 210 210 210 255
155.765 259.13 -71.118 210 210 210 255
155.765 259.13 -67.1732 210 210 210 255
155.765 259.13 -63.2279 210 210 210 255
155.765 259.13 -59.2819 210 210 210 255
155.765 259.13 -55.3354 210 210 210 255
155.765 259.13 -51.3882 210 210 210 255
155.765 259.13 -47.4404 210 210 210 255
155.765 259.13 -43.4918 210 210 210 255
155.765 259.13 -39.5426 210 210 210 255
155.765 259.13 -35.5925 210 210 210 255
155.765 259.13 -31.6416 210 210 210 255
155.765 259.13 -27.6899 210 210 210 255
155.765 259.13 -23.7372 210 210 210 255
155.765 259.13 -19.7836 210 210 210 255
155.765 259.13 -15.8291 210 210 210 255
155.765 259.13 -11.8735 210 210 210 255
155.765 259.13 -7.91681 210 210 210 255
155.765 259.13 -3.95898 210 210 210 255
155.765 259.13 0 210 210 210 255
155.554 270.097 -390 210 210 210 255
155.554 270.097 -386.08 210 210 210 255
155.554 270.097 -382.159 210 210 210 255
155.554 270.097 -378.237 210 210 210 255
155.554 270.097 -374.314 210 210 210 255
155.554 270.097 -370.39 210 210 210 255
155.554 270.097 -366.465 210 210 210 255
155.554 270.097 -362.538 210 210 210 255
155.554 270.097 -358.611 210 210 210 255
155.554 270.097 -354.683 210 210 210 255
155.554 270.097 -350.755 210 210 210 255
155.554 270.097 -346.825 210 210 210 255
155.554 270.097 -342.895 210 210 210 255
155.554 270.097 -338.964 210 210 210 255
155.554 270.097 -335.032 210 210 210 255
155.554 270.097 -331.1 210 210 210 255
155.554 270.097 -327.167 210 210 210 255
155.554 270.097 -323.234 210 210 210 255
155.554 270.097 -319.3 210 210 210 255
155.554 270.097 -315.365 210 210 210 255
155.554 270.097 -311.431 210 210 210 255
155.554 270.097 -307.495 210 210 210 255
155.554 270.097 -303.56 210 210 210 255
155.554 270.097 -299.623 210 210 210 255
155.554 270.097 -295.687 210 210 210 255
155.554 270.097 -291.75 210 210 210 255
155.554 270.097 -287.813 210 210 210 255
155.554 270.097 -283.876 210 210 210 255
155.554 270.097 -279.938 210 210 210 255
155.554 270.097 -276 210 210 210 255
155.554 270.097 -272.062 210 210 210 255
155.554 270.097 -268.124 210 210 210 255
155.554 270.097 -264.185 210 210 210 255
155.554 270.097 -260.247 210 210 210 255
155.554 270.097 -256.308 210 210 210 255
155.554 270.097 -252.369 210 210 210 255
155.554 270.097 -248.43 210 210 210 255
155.554 270.097 -244.491 210 210 210 255
155.554 270.097 -240.552 210 210 210 255
155.554 270.097 -236.613 210 210 210 255
155.554 270.097 -232.674 210 210 210 255
155.554 270.097 -228.735 210 210 210 255
155.554 270.097 -224.795 210 210 210 255
155.554 270.097 -220.856 210 210 210 255
155.554 270.097 -216.917 210 210 210 255
155.554 270.097 -212.977 210 210 210 255
155.554 270.097 -209.038 210 210 210 255
155.554 270.097 -205.098 210 210 210 255
155.554 270.097 -201.159 210 210 210 255
155.554 270.097 -197.22 210 210 210 255
155.554 270.097 -193.28 210 210 210 255
155.554 270.097 -189.341 210 210 210 255
155.554 270.097 -185.402 210 210 210 255
155.554 270.097 -181.462 210 210 210 255
155.554 270.097 -177.523 210 210 210 255
155.554 270.097 -173.583 210 210 210 255
155.554 270.097 -169.644 210 210 210 255
155.554 270.097 -165.704 210 210 210 255
155.554 270.097 -161.765 210 210 210 255
155.554 270.097 -157.825 210 210 210 255
155.554 270.097 -153.886 210 210 210 255
155.554 270.097 -149.946 210 210 210 255
155.554 270.097 -146.007 210 210 210 255
155.554 270.097 -142.067 210 210 210 255
155.554 270.097 -138.127 210 210 210 255
155.554 270.097 -134.187 210 210 210 255
155.554 270.097 -130.247 210 210 210 255
155.554 270.097 -126.307 210 210 210 255
155.554 270.097 -122.366 210 210 210 255
155.554 270.097 -118.426 210 210 210 255
155.554 270.097 -114.485 210 210 210 255
155.554 270.097 -110.544 210 210 210 255
155.554 270.097 -106.603 210 210 210 255
155.554 270.097 -102.662 210 210 210 255
155.554 270.097 -98.7199 210 210 210 255
155.554 270.097 -94.7778 210 210 210 255
155.554 270.097 -90.8355 210 210 210 255
155.554 270.097 -86.8928 210 210 210 255
155.554 270.097 -82.9498 210 210 210 255
155.554 270.097 -79.0063 210 210 210 255
155.554 270.097 -75.0624 210 210 210 255
155.554 270.097 -71.1181 210 210 210 255
155.554 270.097 -67.1733 210 210 210 255
155.554 270.097 -63.2278 210 210 210 255
155.554 270.097 -59.2819 210 210 210 255
155.554 270.097 -55.3354 210 210 210 255
155.554 270.097 -51.3882 210 210 210 255
155.554 270.097 -47.4404 210 210 210 255
155.554 270.097 -43.4918 210 210 210 255
155.554 270.097 -39.5426 210 210 210 255
155.554 270.097 -35.5925 210 210 210 255
155.554 270.097 -31.6417 210 210 210 255
155.554 270.097 -27.6899 210 210 210 255
155.554 270.097 -23.7373 210 210 210 255
155.554 270.097 -19.7837 210 210 210 255
155.554 270.097 -15.8291 210 210 210 255
155.554 270.097 -11.8735 210 210 210 255
155.554 270.097 -7.91681 210 210 210 255
155.554 270.097 -3.95898 210 210 210 255
155.554 270.097 0 210 210 210 255
155.336 281.334 -390 210 210 210 255
155.336 281.334 -386.08 210 210 210 255
155.336 281.334 -382.159 210 210 210 255
155.336 281.334 -378.237 210 210 210 255
155.336 281.334 -374.314 210 210 210 255
155.336 281.334 -370.39 210 210 210 255
155.336 281.334 -366.465 210 210 210 255
155.336 281.334 -362.538 210 210 210 255
155.336 281.334 -358.611 210 210 210 255
155.336 281.334 -354.683 210 210 210 255
155.336 281.334 -350.755 210 210 210 255
155.336 281.334 -346.825 210 210 210 255
155.336 281.334 -342.895 210 210 210 255
155.336 281.334 -338.964 210 210 210 255
155.336 281.334 -335.032 210 210 210 255
155.336 281.334 -331.1 210 210 210 255
155.336 281.334 -327.167 210 210 210 255
155.336 281.334 -323.234 210 210 210 255
155.336 281.334 -319.3 210 210 210 255
155.336 281.334 -315.365 210 210 210 255
155.336 281.334 -311.431 210 210 210 255
155.336 281.334 -307.495 210 210 210 255
155.336 281.334 -303.56 210 210 210 255
155.336 281.334 -299.623 210 210 210 255
155.336 281.334 -295.687 210 210 210 255
155.336 281.334 -291.75 210 210 210 255
155.336 281.334 -287.813 210 210 210 255
155.336 281.334 -283.876 210 210 210 255
155.336 281.334 -279.938 210 210 210 255
155.336 281.334 -276 210 210 210 255
155.336 281.334 -272.062 210 210 210 255
155.336 281.334 -268.124 210 210 210 255
155.336 281.334 -264.186 210 210 210 255
155.336 281.334 -260.247 210 210 210 255
155.336 281.334 -256.308 210 210 210 255
155.336 281.334 -252.369 210 210 210 255
155.336 281.334 -248.43 210 210 210 255
155.336 281.334 -244.491 210 210 210 255
155.336 281.334 -240.552 210 210 210 255
155.336 281.334 -236.613 210 210 210 255
155.336 281.334 -232.674 210 210 210 255
155.336 281.334 -228.735 210 210 210 255
155.336 281.334 -224.795 210 210 210 255
155.336 281.334 -220.856 210 210 210 255
155.336 281.334 -216.917 210 210 210 255
155.336 281.334 -212.977 210 210 210 255
155.336 281.334 -209.038 210 210 210 255
155.336 281.334 -205.098 210 210 210 255
155.336 281.334 -201.159 210 210 210 255
155.336 281.334 -197.22 210 210 210 255
155.336 281.334 -193.28 210 210 210 255
155.336 281.334 -189.341 210 210 210 255
155.336 281.334 -185.402 210 210 210 255
155.336 281.334 -181.462 210 210 210 255
155.336 281.334 -177.523 210 210 210 255
155.336 281.334 -173.583 210 210 210 255
155.336 281.334 -169.644 210 210 210 255
155.336 281.334 -165.704 210 210 210 255
155.336 281.334 -161.765 210 210 210 255
155.336 281.334 -157.825 210 210 210 255
155.336 281.334 -153.886 210 210 210 255
155.336 281.334 -149.946 210 210 210 255
155.336 281.334 -146.007 210 210 210 255
155.336 281.334 -142.067 210 210 210 255
155.336 281.334 -138.127 210 210 210 255
155.336 281.334 -134.187 210 210 210 255
155.336 281.334 -130.247 210 210 210 255
155.336 281.334 -126.307 210 210 210 255
155.336 281.334 -122.366 210 210 210 255
155.336 281.334 -118.426 210 210 210 255
155.336 281.334 -114.485 210 210 210 255
155.336 281.334 -110.544 210 210 210 255
155.336 281.334 -106.603 210 210 210 255
155.336 281.334 -102.662 210 210 210 255
155.336 281.334 -98.7199 210 210 210 255
155.336 281.334 -94.7779 210 210 210 255
155.336 281.334 -90.8355 210 210 210 255
155.336 281.334 -86.8928 210 210 210 255
155.336 281.334 -82.9498 210 210 210 255
155.336 281.334 -79.0063 210 210 210 255
155.336 281.334 -75.0624 210 210 210 255
155.336 281.334 -71.1181 210 210 210 255
155.336 281.334 -67.1732 210 210 210 255
155.336 281.334 -63.2278 210 210 210 255
155.336 281.334 -59.2819 210 210 210 255
155.336 281.334 -55.3354 210 210 210 255
155.336 281.334 -51.3882 210 210 210 255
155.336 281.334 -47.4404 210 210 210 255
155.336 281.334 -43.4918 210 210 210 255
155.336 281.334 -39.5425 210 210 210 255
155.336 281.334 -35.5925 210 210 210 255
155.336 281.334 -31.6417 210 210 210 255
155.336 281.334 -27.6899 210 210 210 255
155.336 281.334 -23.7372 210 210 210 255
155.336 281.334 -19.7837 210 210 210 255
155.336 281.334 -15.8291 210 210 210 255
155.336 281.334 -11.8735 210 210 210 255
155.336 281.334 -7.91681 210 210 210 255
155.336 281.334 -3.95898 210 210 210 255
155.336 281.334 0 210 210 210 255
155.11 292.851 -390 210 210 210 255
155.11 292.851 -386.08 210 210 210 255
155.11 292.851 -382.159 210 210 210 255
155.11 292.851 -378.237 210 210 210 255
155.11 292.851 -374.314 210 210 210 255
155.11 292.851 -370.39 210 210 210 255
155.11 292.851 -366.465 210 210 210 255
155.11 292.851 -362.538 210 210 210 255
155.11 292.851 -358.611 210 210 210 255
155.11 292.851 -354.683 210 210 210 255
155.11 292.851 -350.755 210 210 210 255
155.11 292.851 -346.825 210 210 210 255
155.11 292.851 -342.895 210 210 210 255
155.11 292.851 -338.964 210 210 210 255
155.11 292.851 -335.032 210 210 210 255
155.11 292.851 -331.1 210 210 210 255
155.11 292.851 -327.167 210 210 210 255
155.11 292.851 -323.234 210 210 210 255
155.11 292.851 -319.3 210 210 210 255
155.11 292.851 -315.365 210 210 210 255
155.11 292.851 -311.431 210 210 210 255
155.11 292.851 -307.495 210 210 210 255
155.11 292.851 -303.56 210 210 210 255
155.11 292.851 -299.623 210 210 210 255
155.11 292.851 -295.687 210 210 210 255
155.11 292.851 -291.75 210 210 210 255
155.11 292.851 -287.813 210 210 210 255
155.11 292.851 -283.876 210 210 210 255
155.11 292.851 -279.938 210 210 210 255
155.11 292.851 -276 210 210 210 255
155.11 292.851 -272.062 210 210 210 255
155.11 292.851 -268.124 210 210 210 255
155.11 292.851 -264.185 210 210 210 255
155.11 292.851 -260.247 210 210 210 255
155.11 292.851 -256.308 210 210 210 255
155.11 292.851 -252.369 210 210 210 255
155.11 292.851 -248.43 210 210 210 255
155.11 292.851 -244.491 210 210 210 255
155.11 292.851 -240.552 210 210 210 255
155.11 292.851 -236.613 210 210 210 255
155.11 292.851 -232.674 210 210 210 255
155.11 292.851 -228.735 210 210 210 255
155.11 292.851 -224.795 210 210 210 255
155.11 292.851 -220.856 210 210 210 255
155.11 292.851 -216.917 210 210 210 255
155.11 292.851 -212.977 210 210 210 255
155.11 292.851 -209.038 210 210 210 255
155.11 292.851 -205.098 210 210 210 255
155.11 292.851 -201.159 210 210 210 255
155.11 292.851 -197.22 210 210 210 255
155.11 292.851 -193.28 210 210 210 255
155.11 292.851 -189.341 210 210 210 255
155.11 292.851 -185.402 210 210 210 255
155.11 292.851 -181.462 210 210 210 255
155.11 292.851 -177.523 210 210 210 255
155.11 292.851 -173.583 210 210 210 255
155.11 292.851 -169.644 210 210 210 255
155.11 292.851 -165.704 210 210 210 255
155.11 292.851 -161.765 210 210 210 255
155.11 292.851 -157.825 210 210 210 255
155.11 292.851 -153.886 210 210 210 255
155.11 292.851 -149.946 210 210 210 255
155.11 292.851 -146.007 210 210 210 255
155.11 292.851 -142.067 210 210 210 255
155.11 292.851 -138.127 210 210 210 255
155.11 292.851 -134.187 210 210 210 255
155.11 292.851 -130.247 210 210 210 255
155.11 292.851 -126.307 210 210 210 255
155.11 292.851 -122.366 210 210 210 255
155.11 292.851 -118.426 210 210 210 255
155.11 292.851 -114.485 210 210 210 255
155.11 292.851 -110.544 210 210 210 255
155.11 292.851 -106.603 210 210 210 255
155.11 292.851 -102.662 210 210 210 255
155.11 292.851 -98.7198 210 210 210 255
155.11 292.851 -94.7778 210 210 210 255
155.11 292.851 -90.8356 210 210 210 255
155.11 292.851 -86.8929 210 210 210 255
155.11 292.851 -82.9498 210 210 210 255
155.11 292.851 -79.0063 210 210 210 255
155.11 292.851 -75.0624 210 210 210 255
155.11 292.851 -71.1181 210 210 210 255
155.11 292.851 -67.1733 210 210 210 255
155.11 292.851 -63.2278 210 210 210 255
155.11 292.851 -59.2819 210 210 210 255
155.11 292.851 -55.3354 210 210 210 255
155.11 292.851 -51.3882 210 210 210 255
155.11 292.851 -47.4404 210 210 210 255
155.11 292.851 -43.4918 210 210 210 255
155.11 292.851 -39.5425 210 210 210 255
155.11 292.851 -35.5925 210 210 210 255
155.11 292.851 -31.6417 210 210 210 255
155.11 292.851 -27.6899 210 210 210 255
155.11 292.851 -23.7372 210 210 210 255
155.11 292.851 -19.7837 210 210 210 255
155.11 292.851 -15.8292 210 210 210 255
155.11 292.851 -11.8735 210 210 210 255
155.11 292.851 -7.91681 210 210 210 255
155.11 292.851 -3.95898 210 210 210 255
155.11 292.851 0 210 210 210 255
154.875 304.656 -390 210 210 210 255
154.875 304.656 -386.08 210 210 210 255
154.875 304.656 -382.159 210 210 210 255
154.875 304.656 -378.237 210 210 210 255
154.875 304.656 -374.314 210 210 210 255
154.875 304.656 -370.39 210 210 210 255
154.875 304.656 -366.465 210 210 210 255
154.875 304.656 -362.538 210 210 210 255
154.875 304.656 -358.611 210 210 210 255
154.875 304.656 -354.683 210 210 210 255
154.875 304.656 -350.755 210 210 210 255
154.875 304.656 -346.825 210 210 210 255
154.875 304.656 -342.895 210 210 210 255
154.875 304.656 -338.964 210 210 210 255
154.875 304.656 -335.032 210 210 210 255
154.875 304.656 -331.1 210 210 210 255
154.875 304.656 -327.167 210 210 210 255
154.875 304.656 -323.234 210 210 210 255
154.875 304.656 -319.3 210 210 210 255
154.875 304.656 -315.365 210 210 210 255
154.875 304.656 -311.431 210 210 210 255
154.875 304.656 -307.495 210 210 210 255
154.875 304.656 -303.56 210 210 210 255
154.875 304.656 -299.623 210 210 210 255
154.875 304.656 -295.687 210 210 210 255
154.875 304.656 -291.75 210 210 210 255
154.875 304.656 -287.813 210 210 210 255
154.875 304.656 -283.876 210 210 210 255
154.875 304.656 -279.938 210 210 210 255
154.875 304.656 -276 210 210 210 255
154.875 304.656 -272.062 210 210 210 255
154.875 304.656 -268.124 210 210 210 255
154.875 304.656 -264.185 210 210 210 255
154.875 304.656 -260.247 210 210 210 255
154.875 304.656 -256.308 210 210 210 255
154.875 304.656 -252.369 210 210 210 255
154.875 304.656 -248.43 210 210 210 255
154.875 304.656 -244.491 210 210 210 255
154.875 304.656 -240.552 210 210 210 255
154.875 304.656 -236.613 210 210 210 255
154.875 304.656 -232.674 210 210 210 255
154.875 304.656 -228.735 210 210 210 255
154.875 304.656 -224.795 210 210 210 255
154.875 304.656 -220.856 210 210 210 255
154.875 304.656 -216.917 210 210 210 255
154.875 304.656 -212.977 210 210 210 255
154.875 304.656 -209.038 210 210 210 255
154.875 304.656 -205.098 210 210 210 255
154.875 304.656 -201.159 210 210 210 255
154.875 304.656 -197.22 210 210 210 255
154.875 304.656 -193.28 210 210 210 255
154.875 304.656 -189.341 210 210 210 255
154.875 304.656 -185.402 210 210 210 255
154.875 304.656 -181.462 210 210 210 255
154.875 304.656 -177.523 210 210 210 255
154.875 304.656 -173.583 210 210 210 255
154.875 304.656 -169.644 210 210 210 255
154.875 304.656 -165.704 210 210 210 255
154.875 304.656 -161.765 210 210 210 255
154.875 304.656 -157.825 210 210 210 255
154.875 304.656 -153.886 210 210 210 255
154.875 304.656 -149.946 210 210 210 255
154.875 304.656 -146.007 210 210 210 255
154.875 304.656 -142.067 210 210 210 255
154.875 304.656 -138.127 210 210 210 255
154.875 304.656 -134.187 210 210 210 255
154.875 304.656 -130.247 210 210 210 255
154.875 304.656 -126.307 210 210 210 255
154.875 304.656 -122.366 210 210 210 255
154.875 304.656 -118.426 210 210 210 255
154.875 304.656 -114.485 210 210 210 255
154.875 304.656 -110.544 210 210 210 255
154.875 304.656 -106.603 210 210 210 255
154.875 304.656 -102.662 210 210 210 255
154.875 304.656 -98.7198 210 210 210 255
154.875 304.656 -94.7778 210 210 210 255
154.875 304.656 -90.8356 210 210 210 255
154.875 304.656 -86.8929 210 210 210 255
154.875 304.656 -82.9498 210 210 210 255
154.875 304.656 -79.0063 210 210 210 255
154.875 304.656 -75.0625 210 210 210 255
154.875 304.656 -71.1181 210 210 210 255
154.875 304.656 -67.1732 210 210 210 255
154.875 304.656 -63.2278 210 210 210 255
154.875 304.656 -59.2819 210 210 210 255
154.875 304.656 -55.3353 210 210 210 255
154.875 304.656 -51.3882 210 210 210 255
154.875 304.656 -47.4404 210 210 210 255
154.875 304.656 -43.4918 210 210 210 255
154.875 304.656 -39.5426 210 210 210 255
154.875 304.656 -35.5925 210 210 210 255
154.875 304.656 -31.6416 210 210 210 255
154.875 304.656 -27.6899 210 210 210 255
154.875 304.656 -23.7372 210 210 210 255
154.875 304.656 -19.7837 210 210 210 255
154.875 304.656 -15.8291 210 210 210 255
154.875 304.656 -11.8735 210 210 210 255
154.875 304.656 -7.91681 210 210 210 255
154.875 304.656 -3.95898 210 210 210 255
154.875 304.656 0 210 210 210 255
154.633 316.756 -390 210 210 210 255
154.633 316.756 -386.08 210 210 210 255
154.633 316.756 -382.159 210 210 210 255
154.633 316.756 -378.237 210 210 210 255
154.633 316.756 -374.314 210 210 210 255
154.633 316.756 -370.39 210 210 210 255
154.633 316.756 -366.465 210 210 210 255
154.633 316.756 -362.538 210 210 210 255
154.633 316.756 -358.611 210 210 210 255
154.633 316.756 -354.683 210 210 210 255
154.633 316.756 -350.755 210 210 210 255
154.633 316.756 -346.825 210 210 210 255
154.633 316.756 -342.895 210 210 210 255
154.633 316.756 -338.964 210 210 210 255
154.633 316.756 -335.032 210 210 210 255
154.633 316.756 -331.1 210 210 210 255
154.633 316.756 -327.167 210 210 210 255
154.633 316.756 -323.234 210 210 210 255
154.633 316.756 -319.3 210 210 210 255
154.633 316.756 -315.365 210 210 210 255
154.633 316.756 -311.431 210 210 210 255
154.633 316.756 -307.495 210 210 210 255
154.633 316.756 -303.56 210 210 210 255
154.633 316.756 -299.623 210 210 210 255
154.633 316.756 -295.687 210 210 210 255
154.633 316.756 -291.75 210 210 210 255
154.633 316.756 -287.813 210 210 210 255
154.633 316.756 -283.876 210 210 210 255
154.633 316.756 -279.938 210 210 210 255
154.633 316.756 -276 210 210 210 255
154.633 316.756 -272.062 210 210 210 255
154.633 316.756 -268.124 210 210 210 255
154.633 316.756 -264.185 210 210 210 255
154.633 316.756 -260.247 210 210 210 255
154.633 316.756 -256.308 210 210 210 255
154.633 316.756 -252.369 210 210 210 255
154.633 316.756 -248.43 210 210 210 255
154.633 316.756 -244.491 210 210 210 255
154.633 316.756 -240.552 210 210 210 255
154.633 316.756 -236.613 210 210 210 255
154.633 316.756 -232.674 210 210 210 255
154.633 316.756 -228.735 210 210 210 255
154.633 316.756 -224.795 210 210 210 255
154.633 316.756 -220.856 210 210 210 255
154.633 316.756 -216.917 210 210 210 255
154.633 316.756 -212.977 210 210 210 255
154.633 316.756 -209.038 210 210 210 255
154.633 316.756 -205.098 210 210 210 255
154.633 316.756 -201.159 210 210 210 255
154.633 316.756 -197.22 210 210 210 255
154.633 316.756 -193.28 210 210 210 255
154.633 316.756 -189.341 210 210 210 255
154.633 316.756 -185.401 210 210 210 255
154.633 316.756 -181.462 210 210 210 255
154.633 316.756 -177.523 210 210 210 255
154.633 316.756 -173.583 210 210 210 255
154.633 316.756 -169.644 210 210 210 255
154.633 316.756 -165.704 210 210 210 255
154.633 316.756 -161.765 210 210 210 255
154.633 316.756 -157.825 210 210 210 255
154.633 316.756 -153.886 210 210 210 255
154.633 316.756 -149.946 210 210 210 255
154.633 316.756 -146.007 210 210 210 255
154.633 316.756 -142.067 210 210 210 255
154.633 316.756 -138.127 210 210 210 255
154.633 316.756 -134.187 210 210 210 255
154.633 316.756 -130.247 210 210 210 255
154.633 316.756 -126.307 210 210 210 255
154.633 316.756 -122.366 210 210 210 255
154.633 316.756 -118.426 210 210 210 255
154.633 316.756 -114.485 210 210 210 255
154.633 316.756 -110.544 210 210 210 255
154.633 316.756 -106.603 210 210 210 255
154.633 316.756 -102.662 210 210 210 255
154.633 316.756 -98.7198 210 210 210 255
154.633 316.756 -94.7779 210 210 210 255
154.633 316.756 -90.8355 210 210 210 255
154.633 316.756 -86.8928 210 210 210 255
154.633 316.756 -82.9498 210 210 210 255
154.633 316.756 -79.0063 210 210 210 255
154.633 316.756 -75.0624 210 210 210 255
154.633 316.756 -71.1181 210 210 210 255
154.633 316.756 -67.1732 210 210 210 255
154.633 316.756 -63.2278 210 210 210 255
154.633 316.756 -59.2819 210 210 210 255
154.633 316.756 -55.3354 210 210 210 255
154.633 316.756 -51.3882 210 210 210 255
154.633 316.756 -47.4404 210 210 210 255
154.633 316.756 -43.4918 210 210 210 255
154.633 316.756 -39.5425 210 210 210 255
154.633 316.756 -35.5925 210 210 210 255
154.633 316.756 -31.6416 210 210 210 255
154.633 316.756 -27.6899 210 210 210 255
154.633 316.756 -23.7372 210 210 210 255
154.633 316.756 -19.7837 210 210 210 255
154.633 316.756 -15.8291 210 210 210 255
154.633 316.756 -11.8735 210 210 210 255
154.633 316.756 -7.91681 210 210 210 255
154.633 316.756 -3.95898 210 210 210 255
154.633 316.756 0 210 210 210 255
154.381 329.161 -390 210 210 210 255
154.381 329.161 -386.08 210 210 210 255
154.381 329.161 -382.159 210 210 210 255
154.381 329.161 -378.237 210 210 210 255
154.381 329.161 -374.314 210 210 210 255
154.381 329.161 -370.39 210 210 210 255
154.381 329.161 -366.465 210 210 210 255
154.381 329.161 -362.538 210 210 210 255
154.381 329.161 -358.611 210 210 210 255
154.381 329.161 -354.683 210 210 210 255
154.381 329.161 -350.755 210 210 210 255
154.381 329.161 -346.825 210 210 210 255
154.381 329.161 -342.895 210 210 210 255
154.381 329.161 -338.964 210 210 210 255
154.381 329.161 -335.032 210 210 210 255
154.381 329.161 -331.1 210 210 210 255
154.381 329.161 -327.167 210 210 210 255
154.381 329.161 -323.234 210 210 210 255
154.381 329.161 -319.3 210 210 210 255
154.381 329.161 -315.365 210 210 210 255
154.381 329.161 -311.431 210 210 210 255
154.381 329.161 -307.495 210 210 210 255
154.381 329.161 -303.56 210 210 210 255
154.381 329.161 -299.623 210 210 210 255
154.381 329.161 -295.687 210 210 210 255
154.381 329.161 -291.75 210 210 210 255
154.381 329.161 -287.813 210 210 210 255
154.381 329.161 -283.876 210 210 210 255
154.381 329.161 -279.938 210 210 210 255
154.381 329.161 -276 210 210 210 255
154.381 329.161 -272.062 210 210 210 255
154.381 329.161 -268.124 210 210 210 255
154.381 329.161 -264.185 210 210 210 255
154.381 329.161 -260.247 210 210 210 255
154.381 329.161 -256.308 210 210 210 255
154.381 329.161 -252.369 210 210 210 255
154.381 329.161 -248.43 210 210 210 255
154.381 329.161 -244.491 210 210 210 255
154.381 329.161 -240.552 210 210 210 255
154.381 329.161 -236.613 210 210 210 255
154.381 329.161 -232.674 210 210 210 255
154.381 329.161 -228.735 210 210 210 255
154.381 329.161 -224.795 210 210 210 255
154.381 329.161 -220.856 210 210 210 255
154.381 329.161 -216.917 210 210 210 255
154.381 329.161 -212.977 210 210 210 255
154.381 329.161 -209.038 210 210 210 255
154.381 329.161 -205.098 210 210 210 255
154.381 329.161 -201.159 210 210 210 255
154.381 329.161 -197.22 210 210 210 255
154.381 329.161 -193.28 210 210 210 255
154.381 329.161 -189.341 210 210 210 255
154.381 329.161 -185.401 210 210 210 255
154.381 329.161 -181.462 210 210 210 255
154.381 329.161 -177.523 210 210 210 255
154.381 329.161 -173.583 210 210 210 255
154.381 329.161 -169.644 210 210 210 255
154.381 329.161 -165.704 210 210 210 255
154.381 329.161 -161.765 210 210 210 255
154.381 329.161 -157.825 210 210 210 255
154.381 329.161 -153.886 210 210 210 255
154.381 329.161 -149.946 210 210 210 255
154.381 329.161 -146.007 210 210 210 255
154.381 329.161 -142.067 210 210 210 255
154.381 329.161 -138.127 210 210 210 255
154.381 329.161 -134.187 210 210 210 255
154.381 329.161 -130.247 210 210 210 255
154.381 329.161 -126.307 210 210 210 255
154.381 329.161 -122.366 210 210 210 255
154.381 329.161 -118.426 210 210 210 255
154.381 329.161 -114.485 210 210 210 255
154.381 329.161 -110.544 210 210 210 255
154.381 329.161 -106.603 210 210 210 255
154.381 329.161 -102.662 210 210 210 255
154.381 329.161 -98.7198 210 210 210 255
154.381 329.161 -94.7779 210 210 210 255
154.381 329.161 -90.8355 210 210 210 255
154.381 329.161 -86.8929 210 210 210 255
154.381 329.161 -82.9498 210 210 210 255
154.381 329.161 -79.0063 210 210 210 255
154.381 329.161 -75.0624 210 210 210 255
154.381 329.161 -71.1181 210 210 210 255
154.381 329.161 -67.1732 210 210 210 255
154.381 329.161 -63.2278 210 210 210 255
154.381 329.161 -59.2819 210 210 210 255
154.381 329.161 -55.3354 210 210 210 255
154.381 329.161 -51.3882 210 210 210 255
154.381 329.161 -47.4404 210 210 210 255
154.381 329.161 -43.4918 210 210 210 255
154.381 329.161 -39.5425 210 210 210 255
154.381 329.161 -35.5925 210 210 210 255
154.381 329.161 -31.6417 210 210 210 255
154.381 329.161 -27.6899 210 210 210 255
154.381 329.161 -23.7372 210 210 210 255
154.381 329.161 -19.7837 210 210 210 255
154.381 329.161 -15.8291 210 210 210 255
154.381 329.161 -11.8735 210 210 210 255
154.381 329.161 -7.91681 210 210 210 255
154.381 329.161 -3.95898 210 210 210 255
154.381 329.161 0 210 210 210 255
154.122 341.877 -390 210 210 210 255
154.122 341.877 -386.08 210 210 210 255
154.122 341.877 -382.159 210 210 210 255
154.122 341.877 -378.237 210 210 210 255
154.122 341.877 -374.314 210 210 210 255
154.122 341.877 -370.39 210 210 210 255
154.122 341.877 -366.465 210 210 210 255
154.122 341.877 -362.538 210 210 210 255
154.122 341.877 -358.611 210 210 210 255
154.122 341.877 -354.683 210 210 210 255
154.122 341.877 -350.755 210 210 210 255
154.122 341.877 -346.825 210 210 210 255
154.122 341.877 -342.895 210 210 210 255
154.122 341.877 -338.964 210 210 210 255
154.122 341.877 -335.032 210 210 210 255
154.122 341.877 -331.1 210 210 210 255
154.122 341.877 -327.167 210 210 210 255
154.122 341.877 -323.234 210 210 210 255
154.122 341.877 -319.3 210 210 210 255
154.122 341.877 -315.365 210 210 210 255
154.122 341.877 -311.431 210 210 210 255
154.122 341.877 -307.495 210 210 210 255
154.122 341.877 -303.56 210 210 210 255
154.122 341.877 -299.623 210 210 210 255
154.122 341.877 -295.687 210 210 210 255
154.122 341.877 -291.75 210 210 210 255
154.122 341.877 -287.813 210 210 210 255
154.122 341.877 -283.876 210 210 210 255
154.122 341.877 -279.938 210 210 210 255
154.122 341.877 -276 210 210 210 255
154.122 341.877 -272.062 210 210 210 255
154.122 341.877 -268.124 210 210 210 255
154.122 341.877 -264.185 210 210 210 255
154.122 341.877 -260.247 210 210 210 255
154.122 341.877 -256.308 210 210 210 255
154.122 341.877 -252.369 210 210 210 255
154.122 341.877 -248.43 210 210 210 255
154.122 341.877 -244.491 210 210 210 255
154.122 341.877 -240.552 210 210 210 255
154.122 341.877 -236.613 210 210 210 255
154.122 341.877 -232.674 210 210 210 255
154.122 341.877 -228.735 210 210 210 255
154.122 341.877 -224.795 210 210 210 255
154.122 341.877 -220.856 210 210 210 255
154.122 341.877 -216.917 210 210 210 255
154.122 341.877 -212.977 210 210 210 255
154.122 341.877 -209.038 210 210 210 255
154.122 341.877 -205.098 210 210 210 255
154.122 341.877 -201.159 210 210 210 255
154.122 341.877 -197.22 210 210 210 255
154.122 341.877 -193.28 210 210 210 255
154.122 341.877 -189.341 210 210 210 255
154.122 341.877 -185.402 210 210 210 255
154.122 341.877 -181.462 210 210 210 255
154.122 341.877 -177.523 210 210 210 255
154.122 341.877 -173.583 210 210 210 255
154.122 341.877 -169.644 210 210 210 255
154.122 341.877 -165.704 210 210 210 255
154.122 341.877 -161.765 210 210 210 255
154.122 341.877 -157.825 210 210 210 255
154.122 341.877 -153.886 210 210 210 255
154.122 341.877 -149.946 210 210 210 255
154.122 341.877 -146.007 210 210 210 255
154.122 341.877 -142.067 210 210 210 255
154.122 341.877 -138.127 210 210 210 255
154.122 341.877 -134.187 210 210 210 255
154.122 341.877 -130.247 210 210 210 255
154.122 341.877 -126.307 210 210 210 255
154.122 341.877 -122.366 210 210 210 255
154.122 341.877 -118.426 210 210 210 255
154.122 341.877 -114.485 210 210 210 255
154.122 341.877 -110.544 210 210 210 255
154.122 341.877 -106.603 210 210 210 255
154.122 341.877 -102.662 210 210 210 255
154.122 341.877 -98.7198 210 210 210 255
154.122 341.877 -94.7779 210 210 210 255
154.122 341.877 -90.8355 210 210 210 255
154.122 341.877 -86.8929 210 210 210 255
154.122 341.877 -82.9498 210 210 210 255
154.122 341.877 -79.0063 210 210 210 255
154.122 341.877 -75.0624 210 210 210 255
154.122 341.877 -71.1181 210 210 210 255
154.122 341.877 -67.1732 210 210 210 255
154.122 341.877 -63.2278 210 210 210 255
154.122 341.877 -59.2819 210 210 210 255
154.122 341.877 -55.3354 210 210 210 255
154.122 341.877 -51.3882 210 210 210 255
154.122 341.877 -47.4404 210 210 210 255
154.122 341.877 -43.4918 210 210 210 255
154.122 341.877 -39.5426 210 210 210 255
154.122 341.877 -35.5925 210 210 210 255
154.122 341.877 -31.6417 210 210 210 255
154.122 341.877 -27.6899 210 210 210 255
154.122 341.877 -23.7372 210 210 210 255
154.122 341.877 -19.7837 210 210 210 255
154.122 341.877 -15.8291 210 210 210 255
154.122 341.877 -11.8735 210 210 210 255
154.122 341.877 -7.91681 210 210 210 255
154.122 341.877 -3.95898 210 210 210 255
154.122 341.877 0 210 210 210 255
153.853 354.914 -390 210 210 210 255
153.853 354.914 -386.08 210 210 210 255
153.853 354.914 -382.159 210 210 210 255
153.853 354.914 -378.237 210 210 210 255
153.853 354.914 -374.314 210 210 210 255
153.853 354.914 -370.39 210 210 210 255
153.853 354.914 -366.465 210 210 210 255
153.853 354.914 -362.538 210 210 210 255
153.853 354.914 -358.611 210 210 210 255
153.853 354.914 -354.683 210 210 210 255
153.853 354.914 -350.755 210 210 210 255
153.853 354.914 -346.825 210 210 210 255
153.853 354.914 -342.895 210 210 210 255
153.853 354.914 -338.964 210 210 210 255
153.853 354.914 -335.032 210 210 210 255
153.853 354.914 -331.1 210 210 210 255
153.853 354.914 -327.167 210 210 210 255
153.853 354.914 -323.234 210 210 210 255
153.853 354.914 -319.3 210 210 210 255
153.853 354.914 -315.365 210 210 210 255
153.853 354.914 -311.431 210 210 210 255
153.853 354.914 -307.495 210 210 210 255
153.853 354.914 -303.56 210 210 210 255
153.853 354.914 -299.623 210 210 210 255
153.853 354.914 -295.687 210 210 210 255
153.853 354.914 -291.75 210 210 210 255
153.853 354.914 -287.813 210 210 210 255
153.853 354.914 -283.876 210 210 210 255
153.853 354.914 -279.938 210 210 210 255
153.853 354.914 -276 210 210 210 255
153.853 354.914 -272.062 210 210 210 255
153.853 354.914 -268.124 210 210 210 255
153.853 354.914 -264.185 210 210 210 255
153.853 354.914 -260.247 210 210 210 255
153.853 354.914 -256.308 210 210 210 255
153.853 354.914 -252.369 210 210 210 255
153.853 354.914 -248.43 210 210 210 255
153.853 354.914 -244.491 210 210 210 255
153.853 354.914 -240.552 210 210 210 255
153.853 354.914 -236.613 210 210 210 255
153.853 354.914 -232.674 210 210 210 255
153.853 354.914 -228.735 210 210 210 255
153.853 354.914 -224.795 210 210 210 255
153.853 354.914 -220.856 210 210 210 255
153.853 354.914 -216.917 210 210 210 255
153.853 354.914 -212.977 210 210 210 255
153.853 354.914 -209.038 210 210 210 255
153.853 354.914 -205.099 210 210 210 255
153.853 354.914 -201.159 210 210 210 255
153.853 354.914 -197.22 210 210 210 255
153.853 354.914 -193.28 210 210 210 255
153.853 354.914 -189.341 210 210 210 255
153.853 354.914 -185.402 210 210 210 255
153.853 354.914 -181.462 210 210 210 255
153.853 354.914 -177.523 210 210 210 255
153.853 354.914 -173.583 210 210 210 255
153.853 354.914 -169.644 210 210 210 255
153.853 354.914 -165.704 210 210 210 255
153.853 354.914 -161.765 210 210 210 255
153.853 354.914 -157.825 210 210 210 255
