ply
format ascii 1.0
element vertex 1145
property float x
property float y
property float z
property uchar red
property uchar green
property uchar blue
property uchar alpha
end_header
295.354 -37.0648 -95.6771 210 210 210 255
295.354 -37.0648 -91.1276 210 210 210 255
295.354 -37.0648 -86.5776 210 210 210 255
295.354 -37.0648 -82.0272 210 210 210 255
295.354 -37.0648 -77.4763 210 210 210 255
295.354 -37.0648 -72.9249 210 210 210 255
295.354 -37.0648 -68.3727 210 210 210 255
295.354 -37.0648 -63.8202 210 210 210 255
295.354 -37.0648 -59.2669 210 210 210 255
295.354 -37.0648 -54.7131 210 210 210 255
295.354 -37.0648 -50.1584 210 210 210 255
295.354 -37.0648 -45.6031 210 210 210 255
295.354 -37.0648 -41.0469 210 210 210 255
295.354 -37.0648 -36.4901 210 210 210 255
295.354 -37.0648 -31.9323 210 210 210 255
295.354 -37.0648 -27.3736 210 210 210 255
295.354 -37.0648 -22.814 210 210 210 255
295.354 -37.0648 -18.2533 210 210 210 255
295.354 -37.0648 -13.6917 210 210 210 255
295.354 -37.0648 -9.12891 210 210 210 255
295.354 -37.0648 -4.56506 210 210 210 255
295.354 -37.0648 6.10352e-05 210 210 210 255
295.371 -34.8462 -450 210 210 210 255
295.371 -34.8462 -445.474 210 210 210 255
295.371 -34.8462 -440.947 210 210 210 255
295.371 -34.8462 -436.419 210 210 210 255
295.371 -34.8462 -431.89 210 210 210 255
295.371 -34.8462 -427.359 210 210 210 255
295.371 -34.8462 -422.828 210 210 210 255
295.371 -34.8462 -418.296 210 210 210 255
295.371 -34.8462 -413.763 210 210 210 255
295.371 -34.8462 -409.229 210 210 210 255
295.371 -34.8462 -404.694 210 210 210 255
295.371 -34.8462 -400.159 210 210 210 255
295.371 -34.8462 -395.622 210 210 210 255
295.371 -34.8462 -391.085 210 210 210 255
295.371 -34.8462 -386.548 210 210 210 255
295.371 -34.8462 -382.009 210 210 210 255
295.371 -34.8462 -377.47 210 210 210 255
295.371 -34.8462 -372.931 210 210 210 255
295.371 -34.8462 -368.391 210 210 210 255
295.371 -34.8462 -363.85 210 210 210 255
295.371 -34.8462 -359.309 210 210 210 255
295.371 -34.8462 -354.768 210 210 210 255
295.371 -34.8462 -350.226 210 210 210 255
295.371 -34.8462 -345.684 210 210 210 255
295.371 -34.8462 -341.141 210 210 210 255
295.371 -34.8462 -336.599 210 210 210 255
295.371 -34.8462 -332.055 210 210 210 255
295.371 -34.8462 -327.512 210 210 210 255
295.371 -34.8462 -322.968 210 210 210 255
295.371 -34.8462 -318.424 210 210 210 255
295.371 -34.8462 -313.88 210 210 210 255
295.371 -34.8462 -309.336 210 210 210 255
295.371 -34.8462 -304.792 210 210 210 255
295.371 -34.8462 -300.247 210 210 210 255
295.371 -34.8462 -295.702 210 210 210 255
295.371 -34.8462 -291.157 210 210 210 255
295.371 -34.8462 -286.612 210 210 210 255
295.371 -34.8462 -282.067 210 210 210 255
295.371 -34.8462 -277.522 210 210 210 255
295.371 -34.8462 -272.977 210 210 210 255
295.371 -34.8462 -268.431 210 210 210 255
295.371 -34.8462 -263.886 210 210 210 255
295.371 -34.8462 -259.341 210 210 210 255
295.371 -34.8462 -254.795 210 210 210 255
295.371 -34.8462 -250.25 210 210 210 255
295.371 -34.8462 -245.705 210 210 210 255
295.371 -34.8462 -241.159 210 210 210 255
295.371 -34.8462 -236.614 210 210 210 255
295.371 -34.8462 -232.068 210 210 210 255
295.371 -34.8462 -227.523 210 210 210 255
295.371 -34.8462 -222.977 210 210 210 255
295.371 -34.8462 -218.432 210 210 210 255
295.371 -34.8462 -213.886 210 210 210 255
295.371 -34.8462 -209.341 210 210 210 255
295.371 -34.8462 -204.795 210 210 210 255
295.371 -34.8462 -200.25 210 210 210 255
295.371 -34.8462 -195.704 210 210 210 255
295.371 -34.8462 -191.159 210 210 210 255
295.371 -34.8462 -186.613 210 210 210 255
295.371 -34.8462 -182.068 210 210 210 255
295.371 -34.8462 -177.522 210 210 210 255
295.371 -34.8462 -172.977 210 210 210 255
295.371 -34.8462 -168.431 210 210 210 255
295.371 -34.8462 -163.885 210 210 210 255
295.371 -34.8462 -159.339 210 210 210 255
295.371 -34.8462 -154.793 210 210 210 255
295.371 -34.8462 -150.247 210 210 210 255
295.371 -34.8462 -145.701 210 210 210 255
295.371 -34.8462 -141.154 210 210 210 255
295.371 -34.8462 -136.607 210 210 210 255
295.371 -34.8462 -132.061 210 210 210 255
295.371 -34.8462 -127.514 210 210 210 255
295.371 -34.8462 -122.967 210 210 210 255
295.371 -34.8462 -118.419 210 210 210 255
295.371 -34.8462 -113.871 210 210 210 255
295.371 -34.8462 -109.323 210 210 210 255
295.371 -34.8462 -104.775 210 210 210 255
295.371 -34.8462 -100.226 210 210 210 255
295.371 -34.8462 -95.6771 210 210 210 255
295.371 -34.8462 -91.1274 210 210 210 255
295.371 -34.8462 -86.5777 210 210 210 255
295.371 -34.8462 -82.0272 210 210 210 255
295.371 -34.8462 -77.4762 210 210 210 255
295.371 -34.8462 -72.9248 210 210 210 255
295.371 -34.8462 -68.3728 210 210 210 255
295.371 -34.8462 -63.8202 210 210 210 255
295.371 -34.8462 -59.267 210 210 210 255
295.371 -34.8462 -54.7131 210 210 210 255
295.371 -34.8462 -50.1585 210 210 210 255
295.371 -34.8462 -45.6031 210 210 210 255
295.371 -34.8462 -41.0471 210 210 210 255
295.371 -34.8462 -36.4901 210 210 210 255
295.371 -34.8462 -31.9323 210 210 210 255
295.371 -34.8462 -27.3737 210 210 210 255
295.371 -34.8462 -22.814 210 210 210 255
295.371 -34.8462 -18.2534 210 210 210 255
295.371 -34.8462 -13.6917 210 210 210 255
295.371 -34.8462 -9.12891 210 210 210 255
295.371 -34.8462 -4.56506 210 210 210 255
295.371 -34.8462 0 210 210 210 255
295.389 -32.6481 -450 210 210 210 255
295.389 -32.6481 -445.474 210 210 210 255
295.389 -32.6481 -440.947 210 210 210 255
295.389 -32.6481 -436.419 210 210 210 255
295.389 -32.6481 -431.89 210 210 210 255
295.389 -32.6481 -427.359 210 210 210 255
295.389 -32.6481 -422.828 210 210 210 255
295.389 -32.6481 -418.296 210 210 210 255
295.389 -32.6481 -413.763 210 210 210 255
295.389 -32.6481 -409.229 210 210 210 255
295.389 -32.6481 -404.694 210 210 210 255
295.389 -32.6481 -400.159 210 210 210 255
295.389 -32.6481 -395.622 210 210 210 255
295.389 -32.6481 -391.085 210 210 210 255
295.389 -32.6481 -386.548 210 210 210 255
295.389 -32.6481 -382.009 210 210 210 255
295.389 -32.6481 -377.47 210 210 210 255
295.389 -32.6481 -372.931 210 210 210 255
295.389 -32.6481 -368.391 210 210 210 255
295.389 -32.6481 -363.85 210 210 210 255
295.389 -32.6481 -359.309 210 210 210 255
295.389 -32.6481 -354.768 210 210 210 255
295.389 -32.6481 -350.226 210 210 210 255
295.389 -32.6481 -345.684 210 210 210 255
295.389 -32.6481 -341.141 210 210 210 255
295.389 -32.6481 -336.599 210 210 210 255
295.389 -32.6481 -332.055 210 210 210 255
295.389 -32.6481 -327.512 210 210 210 255
295.389 -32.6481 -322.968 210 210 210 255
295.389 -32.6481 -318.424 210 210 210 255
295.389 -32.6481 -313.88 210 210 210 255
295.389 -32.6481 -309.336 210 210 210 255
295.389 -32.6481 -304.792 210 210 210 255
295.389 -32.6481 -300.247 210 210 210 255
295.389 -32.6481 -295.702 210 210 210 255
295.389 -32.6481 -291.157 210 210 210 255
295.389 -32.6481 -286.612 210 210 210 255
295.389 -32.6481 -282.067 210 210 210 255
295.389 -32.6481 -277.522 210 210 210 255
295.389 -32.6481 -272.977 210 210 210 255
295.389 -32.6481 -268.431 210 210 210 255
295.389 -32.6481 -263.886 210 210 210 255
295.389 -32.6481 -259.341 210 210 210 255
295.389 -32.6481 -254.795 210 210 210 255
295.389 -32.6481 -250.25 210 210 210 255
295.389 -32.6481 -245.705 210 210 210 255
295.389 -32.6481 -241.159 210 210 210 255
295.389 -32.6481 -236.614 210 210 210 255
295.389 -32.6481 -232.068 210 210 210 255
295.389 -32.6481 -227.523 210 210 210 255
295.389 -32.6481 -222.977 210 210 210 255
295.389 -32.6481 -218.432 210 210 210 255
295.389 -32.6481 -213.886 210 210 210 255
295.389 -32.6481 -209.341 210 210 210 255
295.389 -32.6481 -204.795 210 210 210 255
295.389 -32.6481 -200.25 210 210 210 255
295.389 -32.6481 -195.705 210 210 210 255
295.389 -32.6481 -191.159 210 210 210 255
295.389 -32.6481 -186.613 210 210 210 255
295.389 -32.6481 -182.068 210 210 210 255
295.389 -32.6481 -177.522 210 210 210 255
295.389 -32.6481 -172.977 210 210 210 255
295.389 -32.6481 -168.431 210 210 210 255
295.389 -32.6481 -163.885 210 210 210 255
295.389 -32.6481 -159.339 210 210 210 255
295.389 -32.6481 -154.793 210 210 210 255
295.389 -32.6481 -150.247 210 210 210 255
295.389 -32.6481 -145.701 210 210 210 255
295.389 -32.6481 -141.154 210 210 210 255
295.389 -32.6481 -136.608 210 210 210 255
295.389 -32.6481 -132.061 210 210 210 255
295.389 -32.6481 -127.514 210 210 210 255
295.389 -32.6481 -122.967 210 210 210 255
295.389 -32.6481 -118.419 210 210 210 255
295.389 -32.6481 -113.871 210 210 210 255
295.389 -32.6481 -109.323 210 210 210 255
295.389 -32.6481 -104.775 210 210 210 255
295.389 -32.6481 -100.226 210 210 210 255
295.389 -32.6481 -95.6771 210 210 210 255
295.389 -32.6481 -91.1276 210 210 210 255
295.389 -32.6481 -86.5776 210 210 210 255
295.389 -32.6481 -82.0271 210 210 210 255
295.389 -32.6481 -77.4762 210 210 210 255
295.389 -32.6481 -72.9249 210 210 210 255
295.389 -32.6481 -68.3727 210 210 210 255
295.389 -32.6481 -63.8203 210 210 210 255
295.389 -32.6481 -59.267 210 210 210 255
295.389 -32.6481 -54.7131 210 210 210 255
295.389 -32.6481 -50.1585 210 210 210 255
295.389 -32.6481 -45.6032 210 210 210 255
295.389 -32.6481 -41.0471 210 210 210 255
295.389 -32.6481 -36.4901 210 210 210 255
295.389 -32.6481 -31.9324 210 210 210 255
295.389 -32.6481 -27.3737 210 210 210 255
295.389 -32.6481 -22.814 210 210 210 255
295.389 -32.6481 -18.2533 210 210 210 255
295.389 -32.6481 -13.6917 210 210 210 255
295.389 -32.6481 -9.12897 210 210 210 255
295.389 -32.6481 -4.56512 210 210 210 255
295.389 -32.6481 0 210 210 210 255
295.407 -30.4691 -450 210 210 210 255
295.407 -30.4691 -445.474 210 210 210 255
295.407 -30.4691 -440.947 210 210 210 255
295.407 -30.4691 -436.419 210 210 210 255
295.407 -30.4691 -431.89 210 210 210 255
295.407 -30.4691 -427.359 210 210 210 255
295.407 -30.4691 -422.828 210 210 210 255
295.407 -30.4691 -418.296 210 210 210 255
295.407 -30.4691 -413.763 210 210 210 255
295.407 -30.4691 -409.229 210 210 210 255
295.407 -30.4691 -404.694 210 210 210 255
295.407 -30.4691 -400.159 210 210 210 255
295.407 -30.4691 -395.622 210 210 210 255
295.407 -30.4691 -391.085 210 210 210 255
295.407 -30.4691 -386.547 210 210 210 255
295.407 -30.4691 -382.009 210 210 210 255
295.407 -30.4691 -377.47 210 210 210 255
295.407 -30.4691 -372.931 210 210 210 255
295.407 -30.4691 -368.391 210 210 210 255
295.407 -30.4691 -363.85 210 210 210 255
295.407 -30.4691 -359.309 210 210 210 255
295.407 -30.4691 -354.768 210 210 210 255
295.407 -30.4691 -350.226 210 210 210 255
295.407 -30.4691 -345.684 210 210 210 255
295.407 -30.4691 -341.142 210 210 210 255
295.407 -30.4691 -336.599 210 210 210 255
295.407 -30.4691 -332.055 210 210 210 255
295.407 -30.4691 -327.512 210 210 210 255
295.407 -30.4691 -322.968 210 210 210 255
295.407 -30.4691 -318.424 210 210 210 255
295.407 -30.4691 -313.88 210 210 210 255
295.407 -30.4691 -309.336 210 210 210 255
295.407 -30.4691 -304.792 210 210 210 255
295.407 -30.4691 -300.247 210 210 210 255
295.407 -30.4691 -295.702 210 210 210 255
295.407 -30.4691 -291.157 210 210 210 255
295.407 -30.4691 -286.612 210 210 210 255
295.407 -30.4691 -282.067 210 210 210 255
295.407 -30.4691 -277.522 210 210 210 255
295.407 -30.4691 -272.977 210 210 210 255
295.407 -30.4691 -268.431 210 210 210 255
295.407 -30.4691 -263.886 210 210 210 255
295.407 -30.4691 -259.341 210 210 210 255
295.407 -30.4691 -254.795 210 210 210 255
295.407 -30.4691 -250.25 210 210 210 255
295.407 -30.4691 -245.704 210 210 210 255
295.407 -30.4691 -241.159 210 210 210 255
295.407 -30.4691 -236.614 210 210 210 255
295.407 -30.4691 -232.068 210 210 210 255
295.407 -30.4691 -227.523 210 210 210 255
295.407 -30.4691 -222.977 210 210 210 255
295.407 -30.4691 -218.432 210 210 210 255
295.407 -30.4691 -213.886 210 210 210 255
295.407 -30.4691 -209.341 210 210 210 255
295.407 -30.4691 -204.795 210 210 210 255
295.407 -30.4691 -200.25 210 210 210 255
295.407 -30.4691 -195.704 210 210 210 255
295.407 -30.4691 -191.159 210 210 210 255
295.407 -30.4691 -186.613 210 210 210 255
295.407 -30.4691 -182.068 210 210 210 255
295.407 -30.4691 -177.522 210 210 210 255
295.407 -30.4691 -172.977 210 210 210 255
295.407 -30.4691 -168.431 210 210 210 255
295.407 -30.4691 -163.885 210 210 210 255
295.407 -30.4691 -159.339 210 210 210 255
295.407 -30.4691 -154.793 210 210 210 255
295.407 -30.4691 -150.247 210 210 210 255
295.407 -30.4691 -145.701 210 210 210 255
295.407 -30.4691 -141.154 210 210 210 255
295.407 -30.4691 -136.608 210 210 210 255
295.407 -30.4691 -132.061 210 210 210 255
295.407 -30.4691 -127.514 210 210 210 255
295.407 -30.4691 -122.967 210 210 210 255
295.407 -30.4691 -118.419 210 210 210 255
295.407 -30.4691 -113.871 210 210 210 255
295.407 -30.4691 -109.323 210 210 210 255
295.407 -30.4691 -104.775 210 210 210 255
295.407 -30.4691 -100.226 210 210 210 255
295.407 -30.4691 -95.6771 210 210 210 255
295.407 -30.4691 -91.1276 210 210 210 255
295.407 -30.4691 -86.5776 210 210 210 255
295.407 -30.4691 -82.0272 210 210 210 255
295.407 -30.4691 -77.4763 210 210 210 255
295.407 -30.4691 -72.9248 210 210 210 255
295.407 -30.4691 -68.3729 210 210 210 255
295.407 -30.4691 -63.8203 210 210 210 255
295.407 -30.4691 -59.267 210 210 210 255
295.407 -30.4691 -54.7131 210 210 210 255
295.407 -30.4691 -50.1584 210 210 210 255
295.407 -30.4691 -45.6032 210 210 210 255
295.407 -30.4691 -41.047 210 210 210 255
295.407 -30.4691 -36.4901 210 210 210 255
295.407 -30.4691 -31.9323 210 210 210 255
295.407 -30.4691 -27.3736 210 210 210 255
295.407 -30.4691 -22.8141 210 210 210 255
295.407 -30.4691 -18.2534 210 210 210 255
295.407 -30.4691 -13.6917 210 210 210 255
295.407 -30.4691 -9.12891 210 210 210 255
295.407 -30.4691 -4.565 210 210 210 255
295.407 -30.4691 0 210 210 210 255
295.425 -28.308 -450 210 210 210 255
295.425 -28.308 -445.474 210 210 210 255
295.425 -28.308 -440.947 210 210 210 255
295.425 -28.308 -436.419 210 210 210 255
295.425 -28.308 -431.89 210 210 210 255
295.425 -28.308 -427.359 210 210 210 255
295.425 -28.308 -422.828 210 210 210 255
295.425 -28.308 -418.296 210 210 210 255
295.425 -28.308 -413.763 210 210 210 255
295.425 -28.308 -409.229 210 210 210 255
295.425 -28.308 -404.694 210 210 210 255
295.425 -28.308 -400.159 210 210 210 255
295.425 -28.308 -395.622 210 210 210 255
295.425 -28.308 -391.085 210 210 210 255
295.425 -28.308 -386.548 210 210 210 255
295.425 -28.308 -382.009 210 210 210 255
295.425 -28.308 -377.47 210 210 210 255
295.425 -28.308 -372.931 210 210 210 255
295.425 -28.308 -368.391 210 210 210 255
295.425 -28.308 -363.85 210 210 210 255
295.425 -28.308 -359.309 210 210 210 255
295.425 -28.308 -354.768 210 210 210 255
295.425 -28.308 -350.226 210 210 210 255
295.425 -28.308 -345.684 210 210 210 255
295.425 -28.308 -341.141 210 210 210 255
295.425 -28.308 -336.599 210 210 210 255
295.425 -28.308 -332.055 210 210 210 255
295.425 -28.308 -327.512 210 210 210 255
295.425 -28.308 -322.968 210 210 210 255
295.425 -28.308 -318.424 210 210 210 255
295.425 -28.308 -313.88 210 210 210 255
295.425 -28.308 -309.336 210 210 210 255
295.425 -28.308 -304.792 210 210 210 255
295.425 -28.308 -300.247 210 210 210 255
295.425 -28.308 -295.702 210 210 210 255
295.425 -28.308 -291.157 210 210 210 255
295.425 -28.308 -286.612 210 210 210 255
295.425 -28.308 -282.067 210 210 210 255
295.425 -28.308 -277.522 210 210 210 255
295.425 -28.308 -272.977 210 210 210 255
295.425 -28.308 -268.431 210 210 210 255
295.425 -28.308 -263.886 210 210 210 255
295.425 -28.308 -259.341 210 210 210 255
295.425 -28.308 -254.795 210 210 210 255
295.425 -28.308 -250.25 210 210 210 255
295.425 -28.308 -245.704 210 210 210 255
295.425 -28.308 -241.159 210 210 210 255
295.425 -28.308 -236.614 210 210 210 255
295.425 -28.308 -232.068 210 210 210 255
295.425 -28.308 -227.523 210 210 210 255
295.425 -28.308 -222.977 210 210 210 255
295.425 -28.308 -218.432 210 210 210 255
295.425 -28.308 -213.886 210 210 210 255
295.425 -28.308 -209.341 210 210 210 255
295.425 -28.308 -204.795 210 210 210 255
295.425 -28.308 -200.25 210 210 210 255
295.425 -28.308 -195.705 210 210 210 255
295.425 -28.308 -191.159 210 210 210 255
295.425 -28.308 -186.613 210 210 210 255
295.425 -28.308 -182.068 210 210 210 255
295.425 -28.308 -177.522 210 210 210 255
295.425 -28.308 -172.977 210 210 210 255
295.425 -28.308 -168.431 210 210 210 255
295.425 -28.308 -163.885 210 210 210 255
295.425 -28.308 -159.339 210 210 210 255
295.425 -28.308 -154.793 210 210 210 255
295.425 -28.308 -150.247 210 210 210 255
295.425 -28.308 -145.701 210 210 210 255
295.425 -28.308 -141.154 210 210 210 255
295.425 -28.308 -136.608 210 210 210 255
295.425 -28.308 -132.061 210 210 210 255
295.425 -28.308 -127.514 210 210 210 255
295.425 -28.308 -122.967 210 210 210 255
295.425 -28.308 -118.419 210 210 210 255
295.425 -28.308 -113.871 210 210 210 255
295.425 -28.308 -109.323 210 210 210 255
295.425 -28.308 -104.775 210 210 210 255
295.425 -28.308 -100.226 210 210 210 255
295.425 -28.308 -95.6771 210 210 210 255
295.425 -28.308 -91.1276 210 210 210 255
295.425 -28.308 -86.5777 210 210 210 255
295.425 -28.308 -82.0272 210 210 210 255
295.425 -28.308 -77.4763 210 210 210 255
295.425 -28.308 -72.9249 210 210 210 255
295.425 -28.308 -68.3728 210 210 210 255
295.425 -28.308 -63.8201 210 210 210 255
295.425 -28.308 -59.267 210 210 210 255
295.425 -28.308 -54.713 210 210 210 255
295.425 -28.308 -50.1585 210 210 210 255
295.425 -28.308 -45.6032 210 210 210 255
295.425 -28.308 -41.0471 210 210 210 255
295.425 -28.308 -36.4902 210 210 210 255
295.425 -28.308 -31.9323 210 210 210 255
295.425 -28.308 -27.3735 210 210 210 255
295.425 -28.308 -22.8139 210 210 210 255
295.425 -28.308 -18.2533 210 210 210 255
295.425 -28.308 -13.6917 210 210 210 255
295.425 -28.308 -9.12909 210 210 210 255
295.425 -28.308 -4.56512 210 210 210 255
295.425 -28.308 -6.10352e-05 210 210 210 255
295.443 -26.1633 -450 210 210 210 255
295.443 -26.1633 -445.474 210 210 210 255
295.443 -26.1633 -440.947 210 210 210 255
295.443 -26.1633 -436.419 210 210 210 255
295.443 -26.1633 -431.89 210 210 210 255
295.443 -26.1633 -427.359 210 210 210 255
295.443 -26.1633 -422.828 210 210 210 255
295.443 -26.1633 -418.296 210 210 210 255
295.443 -26.1633 -413.763 210 210 210 255
295.443 -26.1633 -409.229 210 210 210 255
295.443 -26.1633 -404.694 210 210 210 255
295.443 -26.1633 -400.159 210 210 210 255
295.443 -26.1633 -395.622 210 210 210 255
295.443 -26.1633 -391.085 210 210 210 255
295.443 -26.1633 -386.548 210 210 210 255
295.443 -26.1633 -382.009 210 210 210 255
295.443 -26.1633 -377.47 210 210 210 255
295.443 -26.1633 -372.931 210 210 210 255
295.443 -26.1633 -368.391 210 210 210 255
295.443 -26.1633 -363.85 210 210 210 255
295.443 -26.1633 -359.309 210 210 210 255
295.443 -26.1633 -354.768 210 210 210 255
295.443 -26.1633 -350.226 210 210 210 255
295.443 -26.1633 -345.684 210 210 210 255
295.443 -26.1633 -341.141 210 210 210 255
295.443 -26.1633 -336.599 210 210 210 255
295.443 -26.1633 -332.055 210 210 210 255
295.443 -26.1633 -327.512 210 210 210 255
295.443 -26.1633 -322.968 210 210 210 255
295.443 -26.1633 -318.424 210 210 210 255
295.443 -26.1633 -313.88 210 210 210 255
295.443 -26.1633 -309.336 210 210 210 255
295.443 -26.1633 -304.792 210 210 210 255
295.443 -26.1633 -300.247 210 210 210 255
295.443 -26.1633 -295.702 210 210 210 255
295.443 -26.1633 -291.157 210 210 210 255
295.443 -26.1633 -286.612 210 210 210 255
295.443 -26.1633 -282.067 210 210 210 255
295.443 -26.1633 -277.522 210 210 210 255
295.443 -26.1633 -272.977 210 210 210 255
295.443 -26.1633 -268.431 210 210 210 255
295.443 -26.1633 -263.886 210 210 210 255
295.443 -26.1633 -259.341 210 210 210 255
295.443 -26.1633 -254.795 210 210 210 255
295.443 -26.1633 -250.25 210 210 210 255
295.443 -26.1633 -245.705 210 210 210 255
295.443 -26.1633 -241.159 210 210 210 255
295.443 -26.1633 -236.614 210 210 210 255
295.443 -26.1633 -232.068 210 210 210 255
295.443 -26.1633 -227.523 210 210 210 255
295.443 -26.1633 -222.977 210 210 210 255
295.443 -26.1633 -218.432 210 210 210 255
295.443 -26.1633 -213.886 210 210 210 255
295.443 -26.1633 -209.341 210 210 210 255
295.443 -26.1633 -204.795 210 210 210 255
295.443 -26.1633 -200.25 210 210 210 255
295.443 -26.1633 -195.705 210 210 210 255
295.443 -26.1633 -191.159 210 210 210 255
295.443 -26.1633 -186.613 210 210 210 255
295.443 -26.1633 -182.068 210 210 210 255
295.443 -26.1633 -177.522 210 210 210 255
295.443 -26.1633 -172.977 210 210 210 255
295.443 -26.1633 -168.431 210 210 210 255
295.443 -26.1633 -163.885 210 210 210 255
295.443 -26.1633 -159.339 210 210 210 255
295.443 -26.1633 -154.793 210 210 210 255
295.443 -26.1633 -150.247 210 210 210 255
295.443 -26.1633 -145.701 210 210 210 255
295.443 -26.1633 -141.154 210 210 210 255
295.443 -26.1633 -136.608 210 210 210 255
295.443 -26.1633 -132.061 210 210 210 255
295.443 -26.1633 -127.514 210 210 210 255
295.443 -26.1633 -122.967 210 210 210 255
295.443 -26.1633 -118.419 210 210 210 255
295.443 -26.1633 -113.871 210 210 210 255
295.443 -26.1633 -109.323 210 210 210 255
295.443 -26.1633 -104.775 210 210 210 255
295.443 -26.1633 -100.226 210 210 210 255
295.443 -26.1633 -95.6771 210 210 210 255
295.443 -26.1633 -91.1276 210 210 210 255
295.443 -26.1633 -86.5776 210 210 210 255
295.443 -26.1633 -82.0272 210 210 210 255
295.443 -26.1633 -77.4763 210 210 210 255
295.443 -26.1633 -72.9248 210 210 210 255
295.443 -26.1633 -68.3729 210 210 210 255
295.443 -26.1633 -63.8203 210 210 210 255
295.443 -26.1633 -59.267 210 210 210 255
295.443 -26.1633 -54.7131 210 210 210 255
295.443 -26.1633 -50.1586 210 210 210 255
295.443 -26.1633 -45.6032 210 210 210 255
295.443 -26.1633 -41.047 210 210 210 255
295.443 -26.1633 -36.4902 210 210 210 255
295.443 -26.1633 -31.9323 210 210 210 255
295.443 -26.1633 -27.3737 210 210 210 255
295.443 -26.1633 -22.8141 210 210 210 255
295.443 -26.1633 -18.2534 210 210 210 255
295.443 -26.1633 -13.6917 210 210 210 255
295.443 -26.1633 -9.12897 210 210 210 255
295.443 -26.1633 -4.565 210 210 210 255
295.443 -26.1633 0 210 210 210 255
295.461 -24.0339 -450 210 210 210 255
295.461 -24.0339 -445.474 210 210 210 255
295.461 -24.0339 -440.947 210 210 210 255
295.461 -24.0339 -436.419 210 210 210 255
295.461 -24.0339 -431.89 210 210 210 255
295.461 -24.0339 -427.359 210 210 210 255
295.461 -24.0339 -422.828 210 210 210 255
295.461 -24.0339 -418.296 210 210 210 255
295.461 -24.0339 -413.763 210 210 210 255
295.461 -24.0339 -409.229 210 210 210 255
295.461 -24.0339 -404.694 210 210 210 255
295.461 -24.0339 -400.159 210 210 210 255
295.461 -24.0339 -395.622 210 210 210 255
295.461 -24.0339 -391.085 210 210 210 255
295.461 -24.0339 -386.548 210 210 210 255
295.461 -24.0339 -382.009 210 210 210 255
295.461 -24.0339 -377.47 210 210 210 255
295.461 -24.0339 -372.931 210 210 210 255
295.461 -24.0339 -368.391 210 210 210 255
295.461 -24.0339 -363.85 210 210 210 255
295.461 -24.0339 -359.309 210 210 210 255
295.461 -24.0339 -354.768 210 210 210 255
295.461 -24.0339 -350.226 210 210 210 255
295.461 -24.0339 -345.684 210 210 210 255
295.461 -24.0339 -341.142 210 210 210 255
295.461 -24.0339 -336.599 210 210 210 255
295.461 -24.0339 -332.055 210 210 210 255
295.461 -24.0339 -327.512 210 210 210 255
295.461 -24.0339 -322.968 210 210 210 255
295.461 -24.0339 -318.424 210 210 210 255
295.461 -24.0339 -313.88 210 210 210 255
295.461 -24.0339 -309.336 210 210 210 255
295.461 -24.0339 -304.792 210 210 210 255
295.461 -24.0339 -300.247 210 210 210 255
295.461 -24.0339 -295.702 210 210 210 255
295.461 -24.0339 -291.157 210 210 210 255
295.461 -24.0339 -286.612 210 210 210 255
295.461 -24.0339 -282.067 210 210 210 255
295.461 -24.0339 -277.522 210 210 210 255
295.461 -24.0339 -272.977 210 210 210 255
295.461 -24.0339 -268.432 210 210 210 255
295.461 -24.0339 -263.886 210 210 210 255
295.461 -24.0339 -259.341 210 210 210 255
295.461 -24.0339 -254.795 210 210 210 255
295.461 -24.0339 -250.25 210 210 210 255
295.461 -24.0339 -245.705 210 210 210 255
295.461 -24.0339 -241.159 210 210 210 255
295.461 -24.0339 -236.614 210 210 210 255
295.461 -24.0339 -232.068 210 210 210 255
295.461 -24.0339 -227.523 210 210 210 255
295.461 -24.0339 -222.977 210 210 210 255
295.461 -24.0339 -218.432 210 210 210 255
295.461 -24.0339 -213.886 210 210 210 255
295.461 -24.0339 -209.341 210 210 210 255
295.461 -24.0339 -204.795 210 210 210 255
295.461 -24.0339 -200.25 210 210 210 255
295.461 -24.0339 -195.704 210 210 210 255
295.461 -24.0339 -191.159 210 210 210 255
295.461 -24.0339 -186.613 210 210 210 255
295.461 -24.0339 -182.068 210 210 210 255
295.461 -24.0339 -177.522 210 210 210 255
295.461 -24.0339 -172.977 210 210 210 255
295.461 -24.0339 -168.431 210 210 210 255
295.461 -24.0339 -163.885 210 210 210 255
295.461 -24.0339 -159.339 210 210 210 255
295.461 -24.0339 -154.793 210 210 210 255
295.461 -24.0339 -150.247 210 210 210 255
295.461 -24.0339 -145.701 210 210 210 255
295.461 -24.0339 -141.154 210 210 210 255
295.461 -24.0339 -136.608 210 210 210 255
295.461 -24.0339 -132.061 210 210 210 255
295.461 -24.0339 -127.514 210 210 210 255
295.461 -24.0339 -122.967 210 210 210 255
295.461 -24.0339 -118.419 210 210 210 255
295.461 -24.0339 -113.871 210 210 210 255
295.461 -24.0339 -109.323 210 210 210 255
295.461 -24.0339 -104.775 210 210 210 255
295.461 -24.0339 -100.226 210 210 210 255
295.461 -24.0339 -95.6771 210 210 210 255
295.461 -24.0339 -91.1275 210 210 210 255
295.461 -24.0339 -86.5776 210 210 210 255
295.461 -24.0339 -82.0272 210 210 210 255
295.461 -24.0339 -77.4763 210 210 210 255
295.461 -24.0339 -72.9249 210 210 210 255
295.461 -24.0339 -68.3729 210 210 210 255
295.461 -24.0339 -63.8201 210 210 210 255
295.461 -24.0339 -59.267 210 210 210 255
295.461 -24.0339 -54.7131 210 210 210 255
295.461 -24.0339 -50.1586 210 210 210 255
295.461 -24.0339 -45.6031 210 210 210 255
295.461 -24.0339 -41.0471 210 210 210 255
295.461 -24.0339 -36.4902 210 210 210 255
295.461 -24.0339 -31.9323 210 210 210 255
295.461 -24.0339 -27.3735 210 210 210 255
295.461 -24.0339 -22.814 210 210 210 255
295.461 -24.0339 -18.2534 210 210 210 255
295.461 -24.0339 -13.6917 210 210 210 255
295.461 -24.0339 -9.12897 210 210 210 255
295.461 -24.0339 -4.565 210 210 210 255
295.461 -24.0339 0 210 210 210 255
295.479 -21.9183 -450 210 210 210 255
295.479 -21.9183 -445.474 210 210 210 255
295.479 -21.9183 -440.947 210 210 210 255
295.479 -21.9183 -436.419 210 210 210 255
295.479 -21.9183 -431.89 210 210 210 255
295.479 -21.9183 -427.359 210 210 210 255
295.479 -21.9183 -422.828 210 210 210 255
295.479 -21.9183 -418.296 210 210 210 255
295.479 -21.9183 -413.763 210 210 210 255
295.479 -21.9183 -409.229 210 210 210 255
295.479 -21.9183 -404.694 210 210 210 255
295.479 -21.9183 -400.159 210 210 210 255
295.479 -21.9183 -395.622 210 210 210 255
295.479 -21.9183 -391.085 210 210 210 255
295.479 -21.9183 -386.547 210 210 210 255
295.479 -21.9183 -382.009 210 210 210 255
295.479 -21.9183 -377.47 210 210 210 255
295.479 -21.9183 -372.931 210 210 210 255
295.479 -21.9183 -368.391 210 210 210 255
295.479 -21.9183 -363.85 210 210 210 255
295.479 -21.9183 -359.309 210 210 210 255
295.479 -21.9183 -354.768 210 210 210 255
295.479 -21.9183 -350.226 210 210 210 255
295.479 -21.9183 -345.684 210 210 210 255
295.479 -21.9183 -341.141 210 210 210 255
295.479 -21.9183 -336.599 210 210 210 255
295.479 -21.9183 -332.055 210 210 210 255
295.479 -21.9183 -327.512 210 210 210 255
295.479 -21.9183 -322.968 210 210 210 255
295.479 -21.9183 -318.424 210 210 210 255
295.479 -21.9183 -313.88 210 210 210 255
295.479 -21.9183 -309.336 210 210 210 255
295.479 -21.9183 -304.792 210 210 210 255
295.479 -21.9183 -300.247 210 210 210 255
295.479 -21.9183 -295.702 210 210 210 255
295.479 -21.9183 -291.157 210 210 210 255
295.479 -21.9183 -286.612 210 210 210 255
295.479 -21.9183 -282.067 210 210 210 255
295.479 -21.9183 -277.522 210 210 210 255
295.479 -21.9183 -272.977 210 210 210 255
295.479 -21.9183 -268.432 210 210 210 255
295.479 -21.9183 -263.886 210 210 210 255
295.479 -21.9183 -259.341 210 210 210 255
295.479 -21.9183 -254.795 210 210 210 255
295.479 -21.9183 -250.25 210 210 210 255
295.479 -21.9183 -245.704 210 210 210 255
295.479 -21.9183 -241.159 210 210 210 255
295.479 -21.9183 -236.614 210 210 210 255
295.479 -21.9183 -232.068 210 210 210 255
295.479 -21.9183 -227.523 210 210 210 255
295.479 -21.9183 -222.977 210 210 210 255
295.479 -21.9183 -218.432 210 210 210 255
295.479 -21.9183 -213.886 210 210 210 255
295.479 -21.9183 -209.341 210 210 210 255
295.479 -21.9183 -204.795 210 210 210 255
295.479 -21.9183 -200.25 210 210 210 255
295.479 -21.9183 -195.704 210 210 210 255
295.479 -21.9183 -191.159 210 210 210 255
295.479 -21.9183 -186.613 210 210 210 255
295.479 -21.9183 -182.068 210 210 210 255
295.479 -21.9183 -177.522 210 210 210 255
295.479 -21.9183 -172.977 210 210 210 255
295.479 -21.9183 -168.431 210 210 210 255
295.479 -21.9183 -163.885 210 210 210 255
295.479 -21.9183 -159.339 210 210 210 255
295.479 -21.9183 -154.793 210 210 210 255
295.479 -21.9183 -150.247 210 210 210 255
295.479 -21.9183 -145.701 210 210 210 255
295.479 -21.9183 -141.154 210 210 210 255
295.479 -21.9183 -136.607 210 210 210 255
295.479 -21.9183 -132.061 210 210 210 255
295.479 -21.9183 -127.514 210 210 210 255
295.479 -21.9183 -122.967 210 210 210 255
295.479 -21.9183 -118.419 210 210 210 255
295.479 -21.9183 -113.871 210 210 210 255
295.479 -21.9183 -109.323 210 210 210 255
295.479 -21.9183 -104.775 210 210 210 255
295.479 -21.9183 -100.226 210 210 210 255
295.479 -21.9183 -95.6769 210 210 210 255
295.479 -21.9183 -91.1276 210 210 210 255
295.479 -21.9183 -86.5776 210 210 210 255
295.479 -21.9183 -82.0273 210 210 210 255
295.479 -21.9183 -77.4763 210 210 210 255
295.479 -21.9183 -72.9248 210 210 210 255
295.479 -21.9183 -68.3729 210 210 210 255
295.479 -21.9183 -63.8202 210 210 210 255
295.479 -21.9183 -59.267 210 210 210 255
295.479 -21.9183 -54.7131 210 210 210 255
295.479 -21.9183 -50.1584 210 210 210 255
295.479 -21.9183 -45.6031 210 210 210 255
295.479 -21.9183 -41.0471 210 210 210 255
295.479 -21.9183 -36.49 210 210 210 255
295.479 -21.9183 -31.9323 210 210 210 255
295.479 -21.9183 -27.3736 210 210 210 255
295.479 -21.9183 -22.814 210 210 210 255
295.479 -21.9183 -18.2535 210 210 210 255
295.479 -21.9183 -13.6918 210 210 210 255
295.479 -21.9183 -9.12897 210 210 210 255
295.479 -21.9183 -4.56512 210 210 210 255
295.479 -21.9183 0 210 210 210 255
295.497 -19.8154 -450 210 210 210 255
295.497 -19.8154 -445.474 210 210 210 255
295.497 -19.8154 -440.947 210 210 210 255
295.497 -19.8154 -436.419 210 210 210 255
295.497 -19.8154 -431.89 210 210 210 255
295.497 -19.8154 -427.359 210 210 210 255
295.497 -19.8154 -422.828 210 210 210 255
295.497 -19.8154 -418.296 210 210 210 255
295.497 -19.8154 -413.763 210 210 210 255
295.497 -19.8154 -409.229 210 210 210 255
295.497 -19.8154 -404.694 210 210 210 255
295.497 -19.8154 -400.159 210 210 210 255
295.497 -19.8154 -395.622 210 210 210 255
295.497 -19.8154 -391.085 210 210 210 255
295.497 -19.8154 -386.548 210 210 210 255
295.497 -19.8154 -382.009 210 210 210 255
295.497 -19.8154 -377.47 210 210 210 255
295.497 -19.8154 -372.931 210 210 210 255
295.497 -19.8154 -368.391 210 210 210 255
295.497 -19.8154 -363.85 210 210 210 255
295.497 -19.8154 -359.309 210 210 210 255
295.497 -19.8154 -354.768 210 210 210 255
295.497 -19.8154 -350.226 210 210 210 255
295.497 -19.8154 -345.684 210 210 210 255
295.497 -19.8154 -341.141 210 210 210 255
295.497 -19.8154 -336.599 210 210 210 255
295.497 -19.8154 -332.055 210 210 210 255
295.497 -19.8154 -327.512 210 210 210 255
295.497 -19.8154 -322.968 210 210 210 255
295.497 -19.8154 -318.424 210 210 210 255
295.497 -19.8154 -313.88 210 210 210 255
295.497 -19.8154 -309.336 210 210 210 255
295.497 -19.8154 -304.792 210 210 210 255
295.497 -19.8154 -300.247 210 210 210 255
295.497 -19.8154 -295.702 210 210 210 255
295.497 -19.8154 -291.157 210 210 210 255
295.497 -19.8154 -286.612 210 210 210 255
295.497 -19.8154 -282.067 210 210 210 255
295.497 -19.8154 -277.522 210 210 210 255
295.497 -19.8154 -272.977 210 210 210 255
295.497 -19.8154 -268.431 210 210 210 255
295.497 -19.8154 -263.886 210 210 210 255
295.497 -19.8154 -259.341 210 210 210 255
295.497 -19.8154 -254.795 210 210 210 255
295.497 -19.8154 -250.25 210 210 210 255
295.497 -19.8154 -245.705 210 210 210 255
295.497 -19.8154 -241.159 210 210 210 255
295.497 -19.8154 -236.614 210 210 210 255
295.497 -19.8154 -232.068 210 210 210 255
295.497 -19.8154 -227.523 210 210 210 255
295.497 -19.8154 -222.977 210 210 210 255
295.497 -19.8154 -218.432 210 210 210 255
295.497 -19.8154 -213.886 210 210 210 255
295.497 -19.8154 -209.341 210 210 210 255
295.497 -19.8154 -204.795 210 210 210 255
295.497 -19.8154 -200.25 210 210 210 255
295.497 -19.8154 -195.704 210 210 210 255
295.497 -19.8154 -191.159 210 210 210 255
295.497 -19.8154 -186.613 210 210 210 255
295.497 -19.8154 -182.068 210 210 210 255
295.497 -19.8154 -177.522 210 210 210 255
295.497 -19.8154 -172.977 210 210 210 255
295.497 -19.8154 -168.431 210 210 210 255
295.497 -19.8154 -163.885 210 210 210 255
295.497 -19.8154 -159.339 210 210 210 255
295.497 -19.8154 -154.793 210 210 210 255
295.497 -19.8154 -150.247 210 210 210 255
295.497 -19.8154 -145.701 210 210 210 255
295.497 -19.8154 -141.154 210 210 210 255
295.497 -19.8154 -136.608 210 210 210 255
295.497 -19.8154 -132.061 210 210 210 255
295.497 -19.8154 -127.514 210 210 210 255
295.497 -19.8154 -122.967 210 210 210 255
295.497 -19.8154 -118.419 210 210 210 255
295.497 -19.8154 -113.871 210 210 210 255
295.497 -19.8154 -109.323 210 210 210 255
295.497 -19.8154 -104.775 210 210 210 255
295.497 -19.8154 -100.226 210 210 210 255
295.497 -19.8154 -95.6771 210 210 210 255
295.497 -19.8154 -91.1275 210 210 210 255
295.497 -19.8154 -86.5776 210 210 210 255
295.497 -19.8154 -82.0272 210 210 210 255
295.497 -19.8154 -77.4763 210 210 210 255
295.497 -19.8154 -72.9249 210 210 210 255
295.497 -19.8154 -68.3728 210 210 210 255
295.497 -19.8154 -63.8203 210 210 210 255
295.497 -19.8154 -59.267 210 210 210 255
295.497 -19.8154 -54.7131 210 210 210 255
295.497 -19.8154 -50.1586 210 210 210 255
295.497 -19.8154 -45.6031 210 210 210 255
295.497 -19.8154 -41.0471 210 210 210 255
295.497 -19.8154 -36.4902 210 210 210 255
295.497 -19.8154 -31.9323 210 210 210 255
295.497 -19.8154 -27.3735 210 210 210 255
295.497 -19.8154 -22.8142 210 210 210 255
295.497 -19.8154 -18.2534 210 210 210 255
295.497 -19.8154 -13.6917 210 210 210 255
295.497 -19.8154 -9.12891 210 210 210 255
295.497 -19.8154 -4.56506 210 210 210 255
295.497 -19.8154 0 210 210 210 255
295.514 -17.7237 -450 210 210 210 255
295.514 -17.7237 -445.474 210 210 210 255
295.514 -17.7237 -440.947 210 210 210 255
295.514 -17.7237 -436.419 210 210 210 255
295.514 -17.7237 -431.89 210 210 210 255
295.514 -17.7237 -427.359 210 210 210 255
295.514 -17.7237 -422.828 210 210 210 255
295.514 -17.7237 -418.296 210 210 210 255
295.514 -17.7237 -413.763 210 210 210 255
295.514 -17.7237 -409.229 210 210 210 255
295.514 -17.7237 -404.694 210 210 210 255
295.514 -17.7237 -400.159 210 210 210 255
295.514 -17.7237 -395.622 210 210 210 255
295.514 -17.7237 -391.085 210 210 210 255
295.514 -17.7237 -386.548 210 210 210 255
295.514 -17.7237 -382.009 210 210 210 255
295.514 -17.7237 -377.47 210 210 210 255
295.514 -17.7237 -372.931 210 210 210 255
295.514 -17.7237 -368.391 210 210 210 255
295.514 -17.7237 -363.85 210 210 210 255
295.514 -17.7237 -359.309 210 210 210 255
295.514 -17.7237 -354.768 210 210 210 255
295.514 -17.7237 -350.226 210 210 210 255
295.514 -17.7237 -345.684 210 210 210 255
295.514 -17.7237 -341.142 210 210 210 255
295.514 -17.7237 -336.599 210 210 210 255
295.514 -17.7237 -332.056 210 210 210 255
295.514 -17.7237 -327.512 210 210 210 255
295.514 -17.7237 -322.968 210 210 210 255
295.514 -17.7237 -318.424 210 210 210 255
295.514 -17.7237 -313.88 210 210 210 255
295.514 -17.7237 -309.336 210 210 210 255
295.514 -17.7237 -304.792 210 210 210 255
295.514 -17.7237 -300.247 210 210 210 255
295.514 -17.7237 -295.702 210 210 210 255
295.514 -17.7237 -291.157 210 210 210 255
295.514 -17.7237 -286.612 210 210 210 255
295.514 -17.7237 -282.067 210 210 210 255
295.514 -17.7237 -277.522 210 210 210 255
295.514 -17.7237 -272.977 210 210 210 255
295.514 -17.7237 -268.431 210 210 210 255
295.514 -17.7237 -263.886 210 210 210 255
295.514 -17.7237 -259.341 210 210 210 255
295.514 -17.7237 -254.795 210 210 210 255
295.514 -17.7237 -250.25 210 210 210 255
295.514 -17.7237 -245.704 210 210 210 255
295.514 -17.7237 -241.159 210 210 210 255
295.514 -17.7237 -236.614 210 210 210 255
295.514 -17.7237 -232.068 210 210 210 255
295.514 -17.7237 -227.523 210 210 210 255
295.514 -17.7237 -222.977 210 210 210 255
295.514 -17.7237 -218.432 210 210 210 255
295.514 -17.7237 -213.886 210 210 210 255
295.514 -17.7237 -209.341 210 210 210 255
295.514 -17.7237 -204.795 210 210 210 255
295.514 -17.7237 -200.25 210 210 210 255
295.514 -17.7237 -195.704 210 210 210 255
295.514 -17.7237 -191.159 210 210 210 255
295.514 -17.7237 -186.613 210 210 210 255
295.514 -17.7237 -182.068 210 210 210 255
295.514 -17.7237 -177.522 210 210 210 255
295.514 -17.7237 -172.977 210 210 210 255
295.514 -17.7237 -168.431 210 210 210 255
295.514 -17.7237 -163.885 210 210 210 255
295.514 -17.7237 -159.339 210 210 210 255
295.514 -17.7237 -154.793 210 210 210 255
295.514 -17.7237 -150.247 210 210 210 255
295.514 -17.7237 -145.701 210 210 210 255
295.514 -17.7237 -141.154 210 210 210 255
295.514 -17.7237 -136.608 210 210 210 255
295.514 -17.7237 -132.061 210 210 210 255
295.514 -17.7237 -127.514 210 210 210 255
295.514 -17.7237 -122.967 210 210 210 255
295.514 -17.7237 -118.419 210 210 210 255
295.514 -17.7237 -113.871 210 210 210 255
295.514 -17.7237 -109.323 210 210 210 255
295.514 -17.7237 -104.775 210 210 210 255
295.514 -17.7237 -100.226 210 210 210 255
295.514 -17.7237 -95.677 210 210 210 255
295.514 -17.7237 -91.1276 210 210 210 255
295.514 -17.7237 -86.5776 210 210 210 255
295.514 -17.7237 -82.0272 210 210 210 255
295.514 -17.7237 -77.4763 210 210 210 255
295.514 -17.7237 -72.9249 210 210 210 255
295.514 -17.7237 -68.3729 210 210 210 255
295.514 -17.7237 -63.8202 210 210 210 255
295.514 -17.7237 -59.2671 210 210 210 255
295.514 -17.7237 -54.7132 210 210 210 255
295.514 -17.7237 -50.1584 210 210 210 255
295.514 -17.7237 -45.6031 210 210 210 255
295.514 -17.7237 -41.047 210 210 210 255
295.514 -17.7237 -36.4901 210 210 210 255
295.514 -17.7237 -31.9323 210 210 210 255
295.514 -17.7237 -27.3737 210 210 210 255
295.514 -17.7237 -22.8139 210 210 210 255
295.514 -17.7237 -18.2534 210 210 210 255
295.514 -17.7237 -13.6917 210 210 210 255
295.514 -17.7237 -9.12903 210 210 210 255
295.514 -17.7237 -4.56506 210 210 210 255
295.514 -17.7237 0 210 210 210 255
295.532 -15.6421 -450 210 210 210 255
295.532 -15.6421 -445.474 210 210 210 255
295.532 -15.6421 -440.947 210 210 210 255
295.532 -15.6421 -436.419 210 210 210 255
295.532 -15.6421 -431.89 210 210 210 255
295.532 -15.6421 -427.359 210 210 210 255
295.532 -15.6421 -422.828 210 210 210 255
295.532 -15.6421 -418.296 210 210 210 255
295.532 -15.6421 -413.763 210 210 210 255
295.532 -15.6421 -409.229 210 210 210 255
295.532 -15.6421 -404.694 210 210 210 255
295.532 -15.6421 -400.159 210 210 210 255
295.532 -15.6421 -395.622 210 210 210 255
295.532 -15.6421 -391.085 210 210 210 255
295.532 -15.6421 -386.547 210 210 210 255
295.532 -15.6421 -382.009 210 210 210 255
295.532 -15.6421 -377.47 210 210 210 255
295.532 -15.6421 -372.931 210 210 210 255
295.532 -15.6421 -368.391 210 210 210 255
295.532 -15.6421 -363.85 210 210 210 255
295.532 -15.6421 -359.309 210 210 210 255
295.532 -15.6421 -354.768 210 210 210 255
295.532 -15.6421 -350.226 210 210 210 255
295.532 -15.6421 -345.684 210 210 210 255
295.532 -15.6421 -341.141 210 210 210 255
295.532 -15.6421 -336.599 210 210 210 255
295.532 -15.6421 -332.055 210 210 210 255
295.532 -15.6421 -327.512 210 210 210 255
295.532 -15.6421 -322.968 210 210 210 255
295.532 -15.6421 -318.424 210 210 210 255
295.532 -15.6421 -313.88 210 210 210 255
295.532 -15.6421 -309.336 210 210 210 255
295.532 -15.6421 -304.792 210 210 210 255
295.532 -15.6421 -300.247 210 210 210 255
295.532 -15.6421 -295.702 210 210 210 255
295.532 -15.6421 -291.157 210 210 210 255
295.532 -15.6421 -286.612 210 210 210 255
295.532 -15.6421 -282.067 210 210 210 255
295.532 -15.6421 -277.522 210 210 210 255
295.532 -15.6421 -272.977 210 210 210 255
295.532 -15.6421 -268.431 210 210 210 255
295.532 -15.6421 -263.886 210 210 210 255
295.532 -15.6421 -259.341 210 210 210 255
295.532 -15.6421 -254.795 210 210 210 255
295.532 -15.6421 -250.25 210 210 210 255
295.532 -15.6421 -245.705 210 210 210 255
295.532 -15.6421 -241.159 210 210 210 255
295.532 -15.6421 -236.614 210 210 210 255
295.532 -15.6421 -232.068 210 210 210 255
295.532 -15.6421 -227.523 210 210 210 255
295.532 -15.6421 -222.977 210 210 210 255
295.532 -15.6421 -218.432 210 210 210 255
295.532 -15.6421 -213.886 210 210 210 255
295.532 -15.6421 -209.341 210 210 210 255
295.532 -15.6421 -204.795 210 210 210 255
295.532 -15.6421 -200.25 210 210 210 255
295.532 -15.6421 -195.704 210 210 210 255
295.532 -15.6421 -191.159 210 210 210 255
295.532 -15.6421 -186.613 210 210 210 255
295.532 -15.6421 -182.068 210 210 210 255
295.532 -15.6421 -177.522 210 210 210 255
295.532 -15.6421 -172.977 210 210 210 255
295.532 -15.6421 -168.431 210 210 210 255
295.532 -15.6421 -163.885 210 210 210 255
295.532 -15.6421 -159.339 210 210 210 255
295.532 -15.6421 -154.793 210 210 210 255
295.532 -15.6421 -150.247 210 210 210 255
295.532 -15.6421 -145.701 210 210 210 255
295.532 -15.6421 -141.154 210 210 210 255
295.532 -15.6421 -136.608 210 210 210 255
295.532 -15.6421 -132.061 210 210 210 255
295.532 -15.6421 -127.514 210 210 210 255
295.532 -15.6421 -122.967 210 210 210 255
295.532 -15.6421 -118.419 210 210 210 255
295.532 -15.6421 -113.871 210 210 210 255
295.532 -15.6421 -109.323 210 210 210 255
295.532 -15.6421 -104.775 210 210 210 255
295.532 -15.6421 -100.226 210 210 210 255
295.532 -15.6421 -95.6771 210 210 210 255
295.532 -15.6421 -91.1275 210 210 210 255
295.532 -15.6421 -86.5775 210 210 210 255
295.532 -15.6421 -82.0272 210 210 210 255
295.532 -15.6421 -77.4763 210 210 210 255
295.532 -15.6421 -72.9249 210 210 210 255
295.532 -15.6421 -68.3727 210 210 210 255
295.532 -15.6421 -63.8202 210 210 210 255
295.532 -15.6421 -59.267 210 210 210 255
295.532 -15.6421 -54.7131 210 210 210 255
295.532 -15.6421 -50.1585 210 210 210 255
295.532 -15.6421 -45.6031 210 210 210 255
295.532 -15.6421 -41.0472 210 210 210 255
295.532 -15.6421 -36.4902 210 210 210 255
295.532 -15.6421 -31.9324 210 210 210 255
295.532 -15.6421 -27.3736 210 210 210 255
295.532 -15.6421 -22.814 210 210 210 255
295.532 -15.6421 -18.2533 210 210 210 255
295.532 -15.6421 -13.6917 210 210 210 255
295.532 -15.6421 -9.12891 210 210 210 255
295.532 -15.6421 -4.565 210 210 210 255
295.532 -15.6421 0 210 210 210 255
295.549 -13.5692 -450 210 210 210 255
295.549 -13.5692 -445.474 210 210 210 255
295.549 -13.5692 -440.947 210 210 210 255
295.549 -13.5692 -436.419 210 210 210 255
295.549 -13.5692 -431.89 210 210 210 255
295.549 -13.5692 -427.359 210 210 210 255
295.549 -13.5692 -422.828 210 210 210 255
295.549 -13.5692 -418.296 210 210 210 255
295.549 -13.5692 -413.763 210 210 210 255
295.549 -13.5692 -409.229 210 210 210 255
295.549 -13.5692 -404.694 210 210 210 255
295.549 -13.5692 -400.158 210 210 210 255
295.549 -13.5692 -395.622 210 210 210 255
295.549 -13.5692 -391.085 210 210 210 255
295.549 -13.5692 -386.548 210 210 210 255
295.549 -13.5692 -382.009 210 210 210 255
295.549 -13.5692 -377.47 210 210 210 255
295.549 -13.5692 -372.931 210 210 210 255
295.549 -13.5692 -368.391 210 210 210 255
295.549 -13.5692 -363.85 210 210 210 255
295.549 -13.5692 -359.309 210 210 210 255
295.549 -13.5692 -354.768 210 210 210 255
295.549 -13.5692 -350.226 210 210 210 255
295.549 -13.5692 -345.684 210 210 210 255
295.549 -13.5692 -341.141 210 210 210 255
295.549 -13.5692 -336.599 210 210 210 255
295.549 -13.5692 -332.056 210 210 210 255
295.549 -13.5692 -327.512 210 210 210 255
295.549 -13.5692 -322.968 210 210 210 255
295.549 -13.5692 -318.424 210 210 210 255
295.549 -13.5692 -313.88 210 210 210 255
295.549 -13.5692 -309.336 210 210 210 255
295.549 -13.5692 -304.792 210 210 210 255
295.549 -13.5692 -300.247 210 210 210 255
295.549 -13.5692 -295.702 210 210 210 255
295.549 -13.5692 -291.157 210 210 210 255
295.549 -13.5692 -286.612 210 210 210 255
295.549 -13.5692 -282.067 210 210 210 255
295.549 -13.5692 -277.522 210 210 210 255
295.549 -13.5692 -272.977 210 210 210 255
295.549 -13.5692 -268.432 210 210 210 255
295.549 -13.5692 -263.886 210 210 210 255
295.549 -13.5692 -259.341 210 210 210 255
295.549 -13.5692 -254.795 210 210 210 255
295.549 -13.5692 -250.25 210 210 210 255
295.549 -13.5692 -245.705 210 210 210 255
295.549 -13.5692 -241.159 210 210 210 255
295.549 -13.5692 -236.614 210 210 210 255
295.549 -13.5692 -232.068 210 210 210 255
295.549 -13.5692 -227.523 210 210 210 255
295.549 -13.5692 -222.977 210 210 210 255
295.549 -13.5692 -218.432 210 210 210 255
295.549 -13.5692 -213.886 210 210 210 255
295.549 -13.5692 -209.341 210 210 210 255
295.549 -13.5692 -204.795 210 210 210 255
295.549 -13.5692 -200.25 210 210 210 255
295.549 -13.5692 -195.704 210 210 210 255
295.549 -13.5692 -191.159 210 210 210 255
295.549 -13.5692 -186.613 210 210 210 255
295.549 -13.5692 -182.068 210 210 210 255
295.549 -13.5692 -177.522 210 210 210 255
295.549 -13.5692 -172.977 210 210 210 255
295.549 -13.5692 -168.431 210 210 210 255
295.549 -13.5692 -163.885 210 210 210 255
295.549 -13.5692 -159.339 210 210 210 255
295.549 -13.5692 -154.793 210 210 210 255
295.549 -13.5692 -150.247 210 210 210 255
295.549 -13.5692 -145.701 210 210 210 255
295.549 -13.5692 -141.154 210 210 210 255
295.549 -13.5692 -136.608 210 210 210 255
295.549 -13.5692 -132.061 210 210 210 255
295.549 -13.5692 -127.514 210 210 210 255
295.549 -13.5692 -122.967 210 210 210 255
295.549 -13.5692 -118.419 210 210 210 255
295.549 -13.5692 -113.871 210 210 210 255
295.549 -13.5692 -109.323 210 210 210 255
295.549 -13.5692 -104.775 210 210 210 255
295.549 -13.5692 -100.226 210 210 210 255
295.549 -13.5692 -95.6771 210 210 210 255
295.549 -13.5692 -91.1276 210 210 210 255
295.549 -13.5692 -86.5776 210 210 210 255
295.549 -13.5692 -82.0271 210 210 210 255
295.549 -13.5692 -77.4762 210 210 210 255
295.549 -13.5692 -72.9249 210 210 210 255
295.549 -13.5692 -68.3728 210 210 210 255
295.549 -13.5692 -63.8203 210 210 210 255
295.549 -13.5692 -59.267 210 210 210 255
295.549 -13.5692 -54.7131 210 210 210 255
295.549 -13.5692 -50.1585 210 210 210 255
295.549 -13.5692 -45.6032 210 210 210 255
295.549 -13.5692 -41.0471 210 210 210 255
295.549 -13.5692 -36.4901 210 210 210 255
295.549 -13.5692 -31.9324 210 210 210 255
295.549 -13.5692 -27.3737 210 210 210 255
295.549 -13.5692 -22.814 210 210 210 255
295.549 -13.5692 -18.2534 210 210 210 255
295.549 -13.5692 -13.6917 210 210 210 255
295.549 -13.5692 -9.12891 210 210 210 255
295.549 -13.5692 -4.565 210 210 210 255
295.549 -13.5692 0 210 210 210 255
295.566 -11.5038 -450 210 210 210 255
295.566 -11.5038 -445.474 210 210 210 255
295.566 -11.5038 -440.947 210 210 210 255
295.566 -11.5038 -436.419 210 210 210 255
295.566 -11.5038 -431.89 210 210 210 255
295.566 -11.5038 -427.359 210 210 210 255
295.566 -11.5038 -422.828 210 210 210 255
295.566 -11.5038 -418.296 210 210 210 255
295.566 -11.5038 -413.763 210 210 210 255
295.566 -11.5038 -409.229 210 210 210 255
295.566 -11.5038 -404.694 210 210 210 255
295.566 -11.5038 -400.159 210 210 210 255
295.566 -11.5038 -395.622 210 210 210 255
295.566 -11.5038 -391.085 210 210 210 255
295.566 -11.5038 -386.547 210 210 210 255
295.566 -11.5038 -382.009 210 210 210 255
295.566 -11.5038 -377.47 210 210 210 255
295.566 -11.5038 -372.931 210 210 210 255
295.566 -11.5038 -368.391 210 210 210 255
295.566 -11.5038 -363.85 210 210 210 255
295.566 -11.5038 -359.309 210 210 210 255
295.566 -11.5038 -354.768 210 210 210 255
295.566 -11.5038 -350.226 210 210 210 255
